# .PCD v0.7 - Point Cloud Data file format
VERSION 0.7
FIELDS x y z intensity
SIZE 4 4 4 4
TYPE F F F F
COUNT 1 1 1 1
WIDTH 1104
HEIGHT 1
VIEWPOINT 0 0 0 1 0 0 0
POINTS 1104
DATA ascii
0.034891773 0.079327062 1.1588001 0.1170439
-0.14974505 0.081127718 1.16725 0.12086237
-0.14232907 0.081409 1.1665001 0.12086237
-0.13409393 0.081613071 1.1662501 0.12086237
-0.12636565 0.081634507 1.1665555 0.12086237
-0.11851811 0.081577927 1.16575 0.12086237
-0.15121119 0.084097624 1.1700001 0.12086237
-0.14990212 0.088089958 1.1750001 0.12086237
-0.14204159 0.089089788 1.1744546 0.12086237
-0.13431349 0.088630185 1.174 0.12086237
-0.12641923 0.089097016 1.1745454 0.12086237
-0.12218396 0.086248681 1.169 0.12086237
-0.11782334 0.089099765 1.1743 0.12086237
-0.11017507 0.088690601 1.1745454 0.12086237
-0.15448515 0.091392793 1.1780001 0.12086237
-0.1511251 0.091392793 1.1780001 0.12086237
-0.15064177 0.094030254 1.1830001 0.12086237
-0.14261821 0.0939309 1.1817501 0.12086237
-0.13365711 0.093950771 1.182 0.12086237
-0.12579036 0.093950771 1.182 0.12086237
-0.11802337 0.094030254 1.1830001 0.12086237
-0.10999668 0.093897782 1.1813334 0.12086237
-0.15052812 0.097687088 1.191 0.12086237
-0.14248173 0.096849509 1.1900001 0.12086237
-0.13453417 0.096829161 1.1897501 0.12086237
-0.12553501 0.096869856 1.19025 0.12086237
-0.11775564 0.096985154 1.1916667 0.12086237
-0.10973271 0.098036788 1.1906667 0.12086237
-0.14750157 0.099445529 1.194 0.12086237
-0.14182542 0.099445529 1.194 0.12086237
-0.1338788 0.099445529 1.194 0.12086237
-0.12600963 0.099507987 1.1947501 0.12086237
-0.1181509 0.099584341 1.1956668 0.12086237
-0.11353967 0.099528812 1.1950001 0.12086237
-0.12600963 0.10177989 1.1947501 0.12086237
-0.11581203 0.10180119 1.1950001 0.12086237
-0.1099468 0.10163081 1.1930001 0.12086237
-0.10663327 0.101716 1.194 0.12086237
-0.11829518 0.17743035 1.1809286 0.11561718
-0.11013174 0.17678115 1.1827999 0.11561718
-0.12628636 0.17686661 1.1790001 0.11561718
-0.10260377 0.17792818 1.1824445 0.11561718
-0.15841982 0.17689472 1.16575 0.11561718
-0.15044755 0.17572783 1.17275 0.11561718
-0.14119771 0.17765366 1.1737 0.11561718
-0.15750322 0.17807485 1.159 0.11561718
-0.1508747 0.1773576 1.1572001 0.11561718
-0.14834587 0.17678188 1.1650001 0.11561718
-0.13465582 0.18012777 1.1760001 0.11561718
-0.14268833 0.17939596 1.164 0.11561718
-0.12632269 0.18076414 1.1765001 0.11561718
-0.11538237 0.18114825 1.179 0.11561718
-0.10932876 0.18204464 1.179 0.11561718
-0.10243586 0.18215244 1.1792858 0.11561718
-0.14949028 0.17860711 1.1482501 0.11561718
-0.14190319 0.18012661 1.1486667 0.11561718
-0.14170717 0.17981261 1.1560001 0.11561718
-0.13332507 0.18469357 1.166 0.11561718
-0.13311011 0.18289742 1.17225 0.11561718
-0.12611601 0.18493484 1.1745833 0.11561718
-0.11794452 0.18551774 1.17475 0.11561718
-0.11052077 0.18674292 1.1740769 0.11561718
-0.10151938 0.18655618 1.17425 0.11561718
-0.15451205 0.18027887 1.1450001 0.11561718
-0.14976405 0.17980652 1.1420001 0.11561718
-0.14433414 0.17980653 1.142 0.11561718
-0.13805163 0.18153846 1.153 0.11561718
-0.13408397 0.18518278 1.1566001 0.11561718
-0.12885273 0.1885035 1.169 0.11561718
-0.12532462 0.1920101 1.1719091 0.11561718
-0.11840542 0.19108424 1.1712 0.11561718
-0.12604794 0.19346336 1.16875 0.11561718
-0.11003357 0.19410622 1.1664287 0.11561718
-0.10782713 0.1908896 1.1700001 0.11561718
-0.10226506 0.1908896 1.1700001 0.11561718
-0.11725953 0.19511412 1.1669999 0.11561718
-0.12854405 0.1994452 1.17125 0.11561718
-0.12503758 0.20052415 1.1656668 0.11561718
-0.11943116 0.19984104 1.1638334 0.11561718
-0.11271079 0.1985936 1.1630001 0.11561718
-0.11014899 0.19870085 1.1593333 0.11561718
-0.11745621 0.20186596 1.1580001 0.11561718
-0.13040289 0.20522816 1.1630001 0.11561718
-0.12808116 0.20505171 1.1620001 0.11561718
-0.11676396 0.20375998 1.1485001 0.11561718
-0.11021435 0.08122208 1.1669999 0.12806553
-0.10194477 0.081619382 1.1663334 0.12806553
-0.09499684 0.082157843 1.1661251 0.12806553
-0.085115157 0.081586421 1.1658572 0.12806553
-0.078607813 0.082123801 1.165625 0.12806553
-0.069795854 0.08236853 1.1665001 0.12806553
-0.062004875 0.08270403 1.1660001 0.12806553
-0.10782713 0.084097624 1.1700001 0.12806553
-0.091140941 0.084097624 1.1700001 0.12806553
-0.087803707 0.084097624 1.1700001 0.12806553
-0.070005104 0.084097624 1.1700001 0.12806553
-0.10218549 0.089091249 1.1741999 0.12806553
-0.095453776 0.086199492 1.1683334 0.12806553
-0.093913428 0.089363195 1.173375 0.12806553
-0.086010411 0.088882521 1.1717273 0.12806553
-0.082171351 0.086248681 1.169 0.12806553
-0.077702701 0.086224079 1.1686667 0.12806553
-0.070208669 0.088809669 1.1734166 0.12806553
-0.062165041 0.086248673 1.169 0.12806553
-0.077912934 0.089801311 1.1718334 0.12806553
-0.062414158 0.089941956 1.1736668 0.12806553
-0.10289436 0.095409147 1.1815001 0.12806553
-0.099476948 0.093513608 1.1765001 0.12806553
-0.093898393 0.093526848 1.1766667 0.12806553
-0.085854836 0.093295023 1.17375 0.12806553
-0.078056678 0.093314894 1.1740001 0.12806553
-0.072630733 0.093513608 1.1765001 0.12806553
-0.069080241 0.095204733 1.1808001 0.12806553
-0.062555648 0.093500353 1.1763334 0.12806553
-0.094350599 0.096225552 1.1823335 0.12806553
-0.086329311 0.096055999 1.18025 0.12806553
-0.078735307 0.098742709 1.1910001 0.12806553
-0.07632006 0.09617129 1.1816667 0.12806553
-0.061733965 0.096198425 1.1820002 0.12806553
-0.10183457 0.099195667 1.191 0.12806553
-0.093891129 0.099174842 1.1907501 0.12806553
-0.085910343 0.099112369 1.1900001 0.12806553
-0.070148222 0.099223427 1.1913334 0.12806553
-0.062191188 0.099174842 1.1907501 0.12806553
-0.10217658 0.10180119 1.1950001 0.12806553
-0.093063064 0.10177279 1.1946667 0.12806553
-0.08624661 0.10177279 1.1946667 0.12806553
-0.078399718 0.10190767 1.1962501 0.12806553
-0.072697908 0.10188638 1.1960001 0.12806553
-0.06208507 0.16794862 1.18875 0.11630636
-0.077495903 0.17668417 1.1837692 0.11630636
-0.074219942 0.17291065 1.184 0.11630636
-0.069658168 0.17276461 1.1830001 0.11630636
-0.065214157 0.17291065 1.184 0.11630636
-0.061528031 0.17626978 1.1824001 0.11630636
-0.086455978 0.17711182 1.182 0.11630636
-0.079983436 0.17545798 1.1860001 0.11630636
-0.069299124 0.17768186 1.1803638 0.11630636
-0.053889204 0.17606306 1.1825 0.11630636
-0.053579066 0.17840047 1.1756667 0.11630636
-0.093619607 0.18201353 1.1788 0.11630636
-0.086218409 0.18222985 1.1787502 0.11630636
-0.07844612 0.18239693 1.1798333 0.11630636
-0.07315921 0.18189491 1.179 0.11630636
-0.06250374 0.18058486 1.1753334 0.11630636
-0.055897243 0.17966531 1.16575 0.11630636
-0.094610959 0.18613729 1.175125 0.11630636
-0.070965476 0.18404508 1.1736667 0.11630636
-0.063358173 0.18206804 1.1705 0.11630636
-0.061861169 0.18242635 1.1633334 0.11630636
-0.085582763 0.1865077 1.1751113 0.11630636
-0.07803642 0.18702167 1.1736666 0.11630636
-0.069736011 0.18572126 1.1655 0.11630636
-0.063025929 0.18373871 1.1576668 0.11630636
-0.055760793 0.18130228 1.1515 0.11630636
-0.061975062 0.18484035 1.1489999 0.11630636
-0.093524411 0.19143648 1.1719999 0.11630636
-0.086252868 0.19170254 1.1715833 0.11630636
-0.068140991 0.18770742 1.15725 0.11630636
-0.060442079 0.18701003 1.1424286 0.11630636
-0.079275213 0.1916312 1.1700001 0.11630636
-0.076951288 0.19360685 1.1685001 0.11630636
-0.072444692 0.19331238 1.1645001 0.11630636
-0.069227748 0.19316977 1.1570001 0.11630636
-0.067891687 0.19030848 1.153 0.11630636
-0.065357305 0.19150114 1.147 0.11630636
-0.084394276 0.19517229 1.169 0.11630636
-0.061582122 0.19296257 1.139889 0.11630636
-0.070206858 0.20078547 1.1671667 0.11630636
-0.072817482 0.20209961 1.1705 0.11630636
-0.063203752 0.2019477 1.1475 0.11630636
-0.0659841 0.20434585 1.1580001 0.11630636
-0.064558126 0.21040455 1.155 0.11630636
-0.13454399 0.26518947 1.0222501 0.55083215
-0.12963088 0.26287997 1.018 0.55083215
-0.12551223 0.26236352 1.016 0.55083215
-0.11751395 0.26417115 1.0208572 0.55083215
-0.13278054 0.266271 1.0124999 0.55083215
-0.1263369 0.26405928 1.0059167 0.55083215
-0.11817964 0.26423436 1.0128 0.55083215
-0.13929319 0.2685858 1.0250001 0.55083215
-0.1172547 0.26555818 1.0052501 0.55083215
-0.14094816 0.27331075 1.0218571 0.55083215
-0.13116802 0.26687443 1.0075001 0.55083215
-0.1248077 0.26665765 0.99833339 0.55083215
-0.11875337 0.26688865 0.99792314 0.55083215
-0.10945779 0.26755285 1.0054286 0.55083215
-0.1365981 0.27245799 1.0122499 0.55083215
-0.13320322 0.27265063 1.0055001 0.55083215
-0.10973862 0.2698302 1.00425 0.55083215
-0.13910455 0.2750563 1.0165 0.55083215
-0.12603171 0.27276394 0.99670601 0.55083215
-0.11799725 0.27295375 0.99576479 0.55083215
-0.10994256 0.27347472 0.99822718 0.55083215
-0.10362167 0.27223465 0.99657148 0.55083215
-0.14066555 0.28184873 1.0194001 0.55083215
-0.13910455 0.27892217 1.0165 0.55083215
-0.13346702 0.28063628 1.0072857 0.55083215
-0.13127305 0.27562124 1.001 0.55083215
-0.13660933 0.28259316 1.0123334 0.55083215
-0.12540896 0.28094548 0.99850011 0.55083215
-0.12971422 0.28208241 1.0036668 0.55083215
-0.11887493 0.25933322 1.0638001 0.39180136
-0.11558084 0.25930157 1.067 0.39180136
-0.11264192 0.25954461 1.0680001 0.39180136
-0.12519787 0.25914869 1.054 0.39180136
-0.11972926 0.25849795 1.0500001 0.39180136
-0.11840577 0.25898987 1.0458573 0.39180136
-0.11558084 0.26133054 1.067 0.39180136
-0.11137721 0.25964043 1.056 0.39180136
-0.11325189 0.2590445 1.0455 0.39180136
-0.14164016 0.26565942 1.0616001 0.39180136
-0.13670997 0.26506802 1.0630001 0.39180136
-0.13161474 0.26296827 1.0532501 0.39180136
-0.12717126 0.2620751 1.051 0.39180136
-0.12336904 0.260414 1.0470001 0.39180136
-0.11159492 0.25884277 1.0347501 0.39180136
-0.11015381 0.25875738 1.0305001 0.39180136
-0.13487749 0.26355097 1.0436667 0.39180136
-0.12406993 0.26177838 1.0445001 0.39180136
-0.11817405 0.25973162 1.0363334 0.39180136
-0.15248232 0.2721526 1.0696667 0.39180136
-0.14979193 0.26894137 1.0650001 0.39180136
-0.14637928 0.26741916 1.0550001 0.39180136
-0.1436889 0.26615179 1.0500001 0.39180136
-0.14066239 0.26656058 1.0465715 0.39180136
-0.13323013 0.26323679 1.0385001 0.39180136
-0.12655912 0.26223591 1.0365 0.39180136
-0.12656936 0.26073426 1.0325 0.39180136
-0.11998695 0.26136556 1.0350001 0.39180136
-0.1164713 0.26010293 1.03 0.39180136
-0.14951064 0.27045768 1.0630001 0.39180136
-0.12578978 0.26306924 1.0295714 0.39180136
-0.11824366 0.26262549 1.028375 0.39180136
-0.14711958 0.26812145 1.046 0.39180136
-0.14946167 0.27356866 1.0555 0.39180136
-0.13409114 0.26499754 1.03 0.39180136
-0.14641634 0.2688193 1.041 0.39180136
-0.14513054 0.27011049 1.046 0.39180136
-0.1419099 0.2687695 1.0370001 0.39180136
-0.13845359 0.26592135 1.026 0.39180136
-0.14627568 0.27053872 1.0400001 0.39180136
-0.1451467 0.27267241 1.0375999 0.39180136
-0.14263308 0.27132675 1.028 0.39180136
-0.094312385 0.20229344 1.0925715 0.43537512
-0.096088983 0.20172478 1.0875001 0.43537512
-0.10714882 0.20784365 1.0843334 0.43537512
-0.093704961 0.21747918 1.0939167 0.43537512
-0.10363233 0.21824993 1.0907143 0.43537512
-0.10087243 0.21553974 1.0878001 0.43537512
-0.097166657 0.21578668 1.0880001 0.43537512
-0.10289562 0.2250784 1.0920833 0.43537512
-0.1007073 0.22254162 1.0890001 0.43537512
-0.095106073 0.22444868 1.0940834 0.43537512
-0.10621756 0.22883502 1.0960001 0.43537512
-0.093299314 0.23107208 1.0981429 0.43537512
-0.10912946 0.23488878 1.0938751 0.43537512
-0.10226838 0.23405245 1.0949231 0.43537512
-0.095655374 0.23416471 1.0943637 0.43537512
-0.11750698 0.23577757 1.094375 0.43537512
-0.086339936 0.2356603 1.0931429 0.43537512
-0.091043577 0.23565671 1.0890001 0.43537512
-0.076501131 0.23551245 1.0883335 0.43537512
-0.1173232 0.24060635 1.0926667 0.43537512
-0.11006167 0.24063127 1.0927777 0.43537512
-0.10267698 0.24136342 1.0923333 0.43537512
-0.094423242 0.24124822 1.0912309 0.43537512
-0.088972777 0.23876292 1.0890001 0.43537512
-0.085783869 0.24092546 1.0915456 0.43537512
-0.07649751 0.23904991 1.0882858 0.43537512
-0.092078969 0.23979832 1.0890001 0.43537512
-0.11770748 0.24660698 1.0962501 0.43537512
-0.10926414 0.24839455 1.096 0.43537512
-0.10216445 0.24903326 1.095 0.43537512
-0.094908029 0.24912921 1.095 0.43537512
-0.086517386 0.2484474 1.0962309 0.43537512
-0.11792127 0.25123322 1.09825 0.43537512
-0.11163117 0.25221974 1.098 0.43537512
-0.084488317 0.25221974 1.098 0.43537512
-0.10957962 0.25682583 1.0962669 0.43537512
-0.10218802 0.25656128 1.0954547 0.43537512
-0.094468005 0.25668216 1.0950667 0.43537512
-0.099103697 0.25952744 1.098 0.43537512
-0.10641139 0.26057142 1.098 0.43537512
-0.10745534 0.26265934 1.098 0.43537512
-0.1020506 0.26218089 1.0960001 0.43537512
-0.096574947 0.26146325 1.0930001 0.43537512
-0.091911763 0.26002795 1.0870001 0.43537512
-0.09962742 0.25177863 1.028 0.53590614
-0.094718084 0.25171742 1.02775 0.53590614
-0.086956337 0.25190109 1.0285001 0.53590614
-0.087252274 0.25221333 1.0250001 0.53590614
-0.09962742 0.25373346 1.028 0.53590614
-0.094718084 0.25367177 1.02775 0.53590614
-0.084612094 0.2549518 1.0276667 0.53590614
-0.10286432 0.25467727 1.0213333 0.53590614
-0.10131302 0.25257921 1.0155001 0.53590614
-0.094072968 0.253885 1.02075 0.53590614
-0.088054195 0.25332537 1.0185001 0.53590614
-0.078143299 0.25666034 1.0197778 0.53590614
-0.10183679 0.25593454 1.0135 0.53590614
-0.093382716 0.25394633 1.0132501 0.53590614
-0.085022189 0.25411743 1.0124 0.53590614
-0.10916124 0.25954667 1.0226667 0.53590614
-0.094789736 0.25608948 1.0053847 0.53590614
-0.086018048 0.25552246 1.0043077 0.53590614
-0.078555301 0.2574524 1.0134001 0.53590614
-0.1007292 0.25904092 1.0064445 0.53590614
-0.079027347 0.25859037 1.0063334 0.53590614
-0.11122835 0.26296225 1.0208334 0.53590614
-0.10629691 0.26068786 1.0170001 0.53590614
-0.086221881 0.25891742 0.99646163 0.53590614
-0.070944093 0.26530519 1.0215555 0.53590614
-0.1103106 0.26524723 1.0130001 0.53590614
-0.10587882 0.26158881 1.013 0.53590614
-0.09322276 0.25929886 0.99862504 0.53590614
-0.080234334 0.25952744 0.99950004 0.53590614
-0.07498426 0.2613306 1.0120001 0.53590614
-0.10395965 0.26434457 1.0047778 0.53590614
-0.074969001 0.2642839 1.0044286 0.53590614
-0.070901848 0.26652828 1.0142 0.53590614
-0.10072731 0.26523805 0.9977501 0.53590614
-0.094665162 0.26201954 0.99633336 0.53590614
-0.077991441 0.26460835 0.99716663 0.53590614
-0.093768112 0.26551828 0.9892354 0.53590614
-0.086079374 0.26486751 0.98895246 0.53590614
-0.080418967 0.26465359 0.9920001 0.53590614
-0.072807208 0.26713836 1.0085001 0.53590614
-0.062768333 0.26835746 1.0167501 0.53590614
-0.098687224 0.26568761 0.99233341 0.53590614
-0.085232645 0.25859478 1.0853333 0.39017862
-0.084500529 0.25876066 1.0760001 0.39017862
-0.078919418 0.25862527 1.079 0.39017862
-0.077858567 0.25926033 1.0704286 0.39017862
-0.069928728 0.25994757 1.0764 0.39017862
-0.084447294 0.26027364 1.0710001 0.39017862
-0.071185529 0.26019263 1.0706667 0.39017862
-0.077513047 0.25955486 1.0597501 0.39017862
-0.069618568 0.26016718 1.0622501 0.39017862
-0.070091441 0.2602002 1.0541999 0.39017862
-0.073666021 0.26066273 1.0480001 0.39017862
-0.069857024 0.26132599 1.0506667 0.39017862
-0.11257654 0.20191036 1.1320001 0.17896791
-0.10728361 0.19534615 1.107 0.17896791
-0.10211178 0.19552262 1.108 0.17896791
-0.11491804 0.20351563 1.141 0.17896791
-0.10728361 0.19745119 1.107 0.17896791
-0.10211178 0.19762956 1.108 0.17896791
-0.11636939 0.20442344 1.1340001 0.17896791
-0.10827859 0.20038609 1.1 0.17896791
-0.10169849 0.19892529 1.1035001 0.17896791
-0.12073869 0.20863706 1.1413335 0.17896791
-0.11626582 0.20747393 1.133 0.17896791
-0.10195876 0.19947523 1.0949999 0.17896791
-0.12572907 0.21140854 1.1406666 0.17896791
-0.10740996 0.20206554 1.094 0.17896791
-0.10219614 0.20154049 1.0865 0.17896791
-0.1224052 0.21122307 1.13 0.17896791
-0.12015001 0.21103616 1.1290001 0.17896791
-0.11591275 0.20729768 1.1090001 0.17896791
-0.11380392 0.20729768 1.1090001 0.17896791
-0.12774315 0.21517849 1.1316001 0.17896791
-0.12444373 0.2121096 1.1290001 0.17896791
-0.11138421 0.20960842 1.099 0.17896791
-0.10731351 0.20403101 1.0860001 0.17896791
-0.1009992 0.20377854 1.0784287 0.17896791
-0.09564919 0.20401923 1.0786667 0.17896791
-0.12598118 0.21771751 1.1262858 0.17896791
-0.12066045 0.21432784 1.1237501 0.17896791
-0.11685344 0.21216892 1.118 0.17896791
-0.09238863 0.20902614 1.0874287 0.17896791
-0.13325894 0.21926841 1.1355001 0.17896791
-0.11885586 0.21654773 1.1168333 0.17896791
-0.10086803 0.20801795 1.0767 0.17896791
-0.095434628 0.20823053 1.0778 0.17896791
-0.11380392 0.21783951 1.109 0.17896791
-0.13514283 0.22392371 1.1323 0.17896791
-0.12317616 0.21951011 1.1175001 0.17896791
-0.11789203 0.21910736 1.1127501 0.17896791
-0.10991064 0.21744914 1.1016668 0.17896791
-0.10392893 0.21170497 1.0830001 0.17896791
-0.13218777 0.22660719 1.1263751 0.17896791
-0.12738012 0.22243725 1.1233335 0.17896791
-0.12580417 0.22524111 1.1165715 0.17896791
-0.11825182 0.22541806 1.1086876 0.17896791
-0.12290519 0.22600292 1.11025 0.17896791
-0.11356448 0.2247483 1.1066667 0.17896791
-0.11028249 0.22517671 1.1018889 0.17896791
-0.12955113 0.23013511 1.1175001 0.17896791
-0.12671952 0.23253362 1.1092223 0.17896791
-0.13256277 0.23505579 1.1190001 0.17896791
-0.11841545 0.2323565 1.1028334 0.17896791
-0.11034179 0.23190522 1.0997 0.17896791
-0.12378744 0.23470275 1.1040001 0.17896791
-0.12754315 0.24109317 1.1092501 0.17896791
-0.12300255 0.24051693 1.097 0.17896791
-0.15028104 0.18501899 1.1393334 0.13339086
-0.14189404 0.1845734 1.1392668 0.13339086
-0.13469571 0.18507546 1.14775 0.13339086
-0.13528462 0.18704484 1.1420001 0.13339086
-0.13120806 0.19343761 1.1652501 0.13339086
-0.14046004 0.18766759 1.1370001 0.13339086
-0.13158815 0.19157074 1.154 0.13339086
-0.15058543 0.19141375 1.14 0.13339086
-0.14065884 0.19226193 1.1386 0.13339086
-0.14180352 0.1932527 1.1351819 0.13339086
-0.13545328 0.19200195 1.1422001 0.13339086
-0.13485397 0.19502969 1.1506667 0.13339086
-0.13133729 0.2000166 1.1713333 0.13339086
-0.14976174 0.19467565 1.13375 0.13339086
-0.13464901 0.2016518 1.1567501 0.13339086
-0.13245825 0.20196423 1.1665001 0.13339086
-0.13753277 0.20051773 1.1486667 0.13339086
-0.14949445 0.2021372 1.13175 0.13339086
-0.14978237 0.19949794 1.1285001 0.13339086
-0.14792806 0.19690694 1.128 0.13339086
-0.14591235 0.19708151 1.1290001 0.13339086
-0.14361565 0.20021808 1.1346 0.13339086
-0.14171903 0.20120248 1.1402 0.13339086
-0.14024071 0.2038594 1.147 0.13339086
-0.12428309 0.20425761 1.1575 0.13339086
-0.1416488 0.20821548 1.1502001 0.13339086
-0.13406485 0.2088692 1.1564546 0.13339086
-0.12745528 0.20808114 1.1563334 0.13339086
-0.12522586 0.20900546 1.1493334 0.13339086
-0.12014581 0.20612323 1.1495 0.13339086
-0.14490935 0.20916994 1.1422501 0.13339086
-0.14025916 0.21116409 1.1557143 0.13339086
-0.15012428 0.20703524 1.1365001 0.13339086
-0.13130307 0.21086213 1.1515 0.13339086
-0.15053529 0.21085572 1.139625 0.13339086
-0.14169835 0.2175508 1.14925 0.13339086
-0.14099923 0.21578772 1.1556001 0.13339086
-0.13386765 0.21576077 1.1484444 0.13339086
-0.15002042 0.21649174 1.1398335 0.13339086
-0.1448025 0.21869005 1.1428334 0.13339086
-0.15170607 0.2194767 1.1338 0.13339086
-0.13576946 0.2190868 1.1430001 0.13339086
-0.13999194 0.22106671 1.1420001 0.13339086
-0.13371633 0.24803779 1.1167779 0.11709391
-0.12786469 0.24877147 1.1090001 0.11709391
-0.12423676 0.24998978 1.1000001 0.11709391
-0.13429108 0.251376 1.1127501 0.11709391
-0.13416383 0.2570436 1.1103158 0.11709391
-0.12844981 0.25451681 1.108 0.11709391
-0.1257363 0.25721282 1.1003751 0.11709391
-0.12300255 0.25407603 1.097 0.11709391
-0.11674452 0.25685737 1.097 0.11709391
-0.11820278 0.25766486 1.0986154 0.11709391
-0.13008539 0.25779665 1.1040001 0.11709391
-0.15016486 0.26013139 1.105 0.11709391
-0.13898444 0.26189011 1.108 0.11709391
-0.14991486 0.26556605 1.1041249 0.11709391
-0.14184883 0.26454863 1.1025385 0.11709391
-0.13353656 0.26328963 1.1065 0.11709391
-0.12703985 0.26337507 1.1010001 0.11709391
-0.13397019 0.26557067 1.1014286 0.11709391
-0.12143279 0.25907108 1.0830001 0.11709391
-0.11757278 0.26194167 1.095 0.11709391
-0.11052059 0.26275581 1.0932 0.11709391
-0.12349217 0.26113048 1.0830001 0.11709391
-0.11861404 0.26173329 1.0855 0.11709391
-0.11134361 0.26298627 1.085 0.11709391
-0.14242861 0.26791808 1.0956001 0.11709391
-0.1352272 0.26671663 1.0946667 0.11709391
-0.15895946 0.27071208 1.1004286 0.11709391
-0.15262295 0.26941293 1.1 0.11709391
-0.14803468 0.26867816 1.097 0.11709391
-0.13349494 0.2667188 1.0890001 0.11709391
-0.15856221 0.27348012 1.0935714 0.11709391
-0.15241246 0.26928324 1.0910001 0.11709391
-0.14751726 0.26792574 1.0855 0.11709391
-0.14395303 0.26706186 1.082 0.11709391
-0.14150211 0.26632136 1.079 0.11709391
-0.14125969 0.26977691 1.0930001 0.11709391
-0.15033978 0.27080324 1.0860001 0.11709391
-0.14395303 0.26911935 1.082 0.11709391
-0.15637936 0.27458116 1.0873333 0.11709391
-0.16071087 0.27758169 1.0910001 0.11709391
-0.15932235 0.27977419 1.0845716 0.11709391
-0.15831251 0.28239661 1.0777143 0.11709391
-0.14838548 0.22226077 1.1315 0.11710738
-0.14164561 0.22400425 1.1339091 0.11710738
-0.15026112 0.22646627 1.1278 0.11710738
-0.14452121 0.22697596 1.1281999 0.11710738
-0.15766534 0.23260808 1.1260557 0.11710738
-0.14195645 0.23295325 1.1260002 0.11710738
-0.13525823 0.23238871 1.1243001 0.11710738
-0.15029405 0.23413827 1.1250716 0.11710738
-0.16630031 0.23992325 1.1239231 0.11710738
-0.1426179 0.24077313 1.1241666 0.11710738
-0.15733893 0.24057342 1.123 0.11710738
-0.15082018 0.24143495 1.1255833 0.11710738
-0.13395235 0.2410295 1.1187501 0.11710738
-0.16024527 0.24263673 1.1198571 0.11710738
-0.13848348 0.24258143 1.1210001 0.11710738
-0.16599786 0.24442202 1.1196667 0.11710738
-0.15515193 0.24716482 1.1244 0.11710738
-0.14970566 0.24956025 1.1333333 0.11710738
-0.14260879 0.24827167 1.1247144 0.11710738
-0.16621105 0.24793866 1.1163335 0.11710738
-0.15801762 0.24827358 1.1167779 0.11710738
-0.1405181 0.25046071 1.1181251 0.11710738
-0.15074208 0.25146922 1.125 0.11710738
-0.16537322 0.25091881 1.1126001 0.11710738
-0.15902543 0.25049552 1.1126001 0.11710738
-0.15036161 0.25200087 1.1174001 0.11710738
-0.17241636 0.25143248 1.113 0.11710738
-0.16578518 0.25686157 1.1100001 0.11710738
-0.15776867 0.25676468 1.1102353 0.11710738
-0.15053302 0.25705251 1.1092666 0.11710738
-0.14734796 0.25411844 1.1155001 0.11710738
-0.14188771 0.25436324 1.1142501 0.11710738
-0.14273879 0.25820473 1.1102858 0.11710738
-0.15871325 0.26299572 1.1060001 0.11710738
-0.15848501 0.26611871 1.1044167 0.11710738
-0.15345544 0.26457307 1.1060001 0.11710738
-0.09605179 0.19605201 1.1110001 0.29928204
-0.092506565 0.20196292 1.1322858 0.29928204
-0.09605179 0.19816466 1.1110001 0.29928204
-0.093373515 0.20076315 1.1001667 0.29928204
-0.094387688 0.20352212 1.1290001 0.29928204
-0.088414498 0.20460372 1.1350001 0.29928204
-0.091126546 0.2055779 1.1285 0.29928204
-0.085719325 0.20823054 1.1336 0.29928204
-0.08589112 0.21037954 1.1255001 0.29928204
-0.081017867 0.21049583 1.1342001 0.29928204
-0.089041814 0.20951326 1.1008571 0.29928204
-0.087012336 0.21091522 1.1170001 0.29928204
-0.077515133 0.21509579 1.1334286 0.29928204
-0.08317177 0.21408969 1.1225001 0.29928204
-0.07855548 0.21710631 1.1262858 0.29928204
-0.084328301 0.2172136 1.1166251 0.29928204
-0.088602431 0.21785766 1.10375 0.29928204
-0.086903259 0.2178648 1.1102002 0.29928204
-0.079861268 0.21896967 1.118 0.29928204
-0.090075746 0.21656555 1.1025 0.29928204
-0.075331904 0.22147898 1.133 0.29928204
-0.069976598 0.22588757 1.1335001 0.29928204
-0.069295257 0.22537421 1.14 0.29928204
-0.076330855 0.22401449 1.1161251 0.29928204
-0.074833237 0.22322178 1.1255001 0.29928204
-0.071297258 0.22617662 1.126 0.29928204
-0.083894454 0.22426613 1.1095001 0.29928204
-0.087944038 0.22553521 1.102091 0.29928204
-0.078357778 0.22589163 1.1110001 0.29928204
-0.072402388 0.22765984 1.1210001 0.29928204
-0.066537395 0.22948761 1.13 0.29928204
-0.091879606 0.22737157 1.0990001 0.29928204
-0.081875108 0.22861293 1.105 0.29928204
-0.0779057 0.23035538 1.1083332 0.29928204
-0.086603194 0.23195259 1.0993845 0.29928204
-0.078882225 0.23295055 1.1023334 0.29928204
-0.101983 0.19479875 1.1667777 0.32018304
-0.096166573 0.19463359 1.1680001 0.32018304
-0.093032308 0.19796723 1.1658334 0.32018304
-0.085615307 0.19851536 1.1654444 0.32018304
-0.078408867 0.20043367 1.166 0.32018304
-0.10244878 0.19799595 1.1595001 0.32018304
-0.092709929 0.2001621 1.1571666 0.32018304
-0.10886703 0.19994089 1.1503999 0.32018304
-0.10163076 0.19860369 1.1502501 0.32018304
-0.095524631 0.20024925 1.1513333 0.32018304
-0.085827798 0.20256649 1.1583334 0.32018304
-0.1021983 0.19975813 1.1443334 0.32018304
-0.094636694 0.20096315 1.1450001 0.32018304
-0.087294221 0.2034265 1.1486667 0.32018304
-0.081538722 0.20469877 1.1600001 0.32018304
-0.076806463 0.20586881 1.1635001 0.32018304
-0.07081487 0.20558111 1.1650001 0.32018304
-0.087756202 0.20342645 1.1405001 0.32018304
-0.082914308 0.20594394 1.1485001 0.32018304
-0.077552222 0.20849524 1.158125 0.32018304
-0.07064864 0.20842718 1.15775 0.32018304
-0.084542535 0.20676874 1.141 0.32018304
-0.077641577 0.21026751 1.15125 0.32018304
-0.078221567 0.21107331 1.1437501 0.32018304
-0.06953606 0.21168542 1.153 0.32018304
-0.074210837 0.2147727 1.149 0.32018304
-0.072276682 0.21771482 1.153 0.32018304
-0.069117732 0.2170272 1.1551667 0.32018304
-0.063993014 0.21657959 1.156143 0.32018304
-0.075730838 0.21398832 1.1390001 0.32018304
-0.073737197 0.21882743 1.1416668 0.32018304
-0.069257662 0.22186612 1.1575 0.32018304
-0.065756172 0.22119524 1.154 0.32018304
-0.069451943 0.22344907 1.1498001 0.32018304
-0.063196473 0.22209913 1.1473333 0.32018304
-0.070098959 0.23196875 1.1182858 0.13671894
-0.066935487 0.23303576 1.1246667 0.13671894
-0.071929894 0.23326024 1.109625 0.13671894
-0.062061243 0.24078456 1.124 0.13671894
-0.072124213 0.23500675 1.1005001 0.13671894
-0.067865565 0.23842156 1.1165 0.13671894
-0.066095769 0.23970377 1.1225001 0.13671894
-0.078534819 0.2349875 1.0936 0.13671894
-0.072738841 0.23465839 1.0940001 0.13671894
-0.067996249 0.24125929 1.1100001 0.13671894
-0.072871812 0.23925561 1.0960001 0.13671894
-0.070376463 0.24161988 1.1004444 0.13671894
-0.065889679 0.24321255 1.1190001 0.13671894
-0.079049096 0.24239783 1.0913751 0.13671894
-0.059692271 0.24610731 1.1225001 0.13671894
-0.056258101 0.24843568 1.125 0.13671894
-0.06277407 0.24927014 1.1166002 0.13671894
-0.06786678 0.25024036 1.1096001 0.13671894
-0.079135276 0.24851836 1.096143 0.13671894
-0.071697466 0.2493816 1.1028889 0.13671894
-0.076553352 0.25105685 1.099 0.13671894
-0.056263104 0.25256199 1.118 0.13671894
-0.052313138 0.25403038 1.1245 0.13671894
-0.062330384 0.25673842 1.1094738 0.13671894
-0.053981408 0.25766066 1.1096923 0.13671894
-0.052507915 0.25485188 1.1150001 0.13671894
-0.071754672 0.25700673 1.102875 0.13671894
-0.068215773 0.25739193 1.1074286 0.13671894
-0.086427204 0.25556222 1.0930769 0.13671894
-0.078191504 0.25591859 1.0935456 0.13671894
-0.075161099 0.25558323 1.099 0.13671894
-0.058575533 0.26035237 1.1015 0.13671894
-0.055840377 0.2602787 1.1026667 0.13671894
-0.078499101 0.25804004 1.0873333 0.13671894
-0.071828805 0.26009679 1.096 0.13671894
-0.068154469 0.26199532 1.1040001 0.13671894
-0.061691899 0.26232952 1.101 0.13671894
-0.052885015 0.26385587 1.1030002 0.13671894
-0.072158806 0.25962925 1.0853335 0.13671894
-0.067292027 0.26279649 1.0956668 0.13671894
-0.064594261 0.26346311 1.097 0.13671894
-0.014883181 0.07612399 1.1570001 0.14704609
-0.046024829 0.081790611 1.1656001 0.14704609
-0.03868714 0.081519142 1.1649001 0.14704609
-0.035247099 0.079035282 1.161 0.14704609
-0.029702216 0.078967206 1.1600001 0.14704609
-0.021995151 0.079012595 1.1606667 0.14704609
-0.014260605 0.078967206 1.1600001 0.14704609
-0.0055912966 0.082358032 1.1663334 0.14704609
-0.029845417 0.082675964 1.165625 0.14704609
-0.022086112 0.082667448 1.1655 0.14704609
-0.014332715 0.082693934 1.165875 0.14704609
-0.054431338 0.084097624 1.1700001 0.14704609
-0.054535776 0.08872059 1.17225 0.14704609
-0.045484107 0.086230233 1.16875 0.14704609
-0.03768063 0.086174898 1.1680001 0.14704609
-0.029895207 0.08613801 1.1675 0.14704609
-0.022126535 0.086150311 1.1676668 0.14704609
-0.014353764 0.08613801 1.1675 0.14704609
-0.0054758256 0.086174898 1.1680001 0.14704609
-0.045672756 0.08993905 1.173625 0.14704609
-0.037836876 0.089878581 1.1728334 0.14704609
-0.030015884 0.08983355 1.17225 0.14704609
-0.022222234 0.089865647 1.1726667 0.14704609
-0.014421383 0.089891516 1.1730001 0.14704609
-0.0054955301 0.089814395 1.1720001 0.14704609
-0.054674868 0.093414247 1.1752501 0.14704609
-0.045774557 0.09349373 1.17625 0.14704609
-0.037939992 0.093473874 1.1760001 0.14704609
-0.03006638 0.093334764 1.17425 0.14704609
-0.022266133 0.093394376 1.1750001 0.14704609
-0.014458267 0.093473859 1.176 0.14704609
-0.0055081849 0.093374506 1.1747501 0.14704609
-0.05383477 0.096144162 1.1813334 0.14704609
-0.04600805 0.096218765 1.18225 0.14704609
-0.038154427 0.09625268 1.1826668 0.14704609
-0.030227127 0.096076339 1.1805 0.14704609
-0.022398785 0.096198417 1.182 0.14704609
-0.014532033 0.096198417 1.182 0.14704609
-0.044624012 0.17611492 1.1753334 0.11791783
-0.037203431 0.17850228 1.1763333 0.11791783
-0.045388721 0.17697155 1.16625 0.11791783
-0.038824357 0.17738885 1.169 0.11791783
-0.052908778 0.17985444 1.161 0.11791783
-0.046115428 0.17771681 1.1566668 0.11791783
-0.039112419 0.17876947 1.1578001 0.11791783
-0.033494711 0.18084094 1.177 0.11791783
-0.04737404 0.17978044 1.1446002 0.11791783
-0.045914825 0.17913854 1.1516666 0.11791783
-0.04069778 0.18012597 1.1486667 0.11791783
-0.035641767 0.18261245 1.174 0.11791783
-0.029600549 0.18565647 1.1734999 0.11791783
-0.052316349 0.18075122 1.148 0.11791783
-0.035786923 0.18253236 1.1546668 0.11791783
-0.05415247 0.18501715 1.1406667 0.11791783
-0.046512585 0.18483141 1.1395 0.11791783
-0.038931996 0.18553911 1.1396364 0.11791783
-0.035958625 0.18519689 1.1485 0.11791783
-0.031784244 0.1852275 1.1555001 0.11791783
-0.022290766 0.18744914 1.1763333 0.11791783
-0.046409875 0.18442447 1.1370001 0.11791783
-0.022020116 0.1921422 1.1727273 0.11791783
-0.032754812 0.18778966 1.151 0.11791783
-0.027614925 0.19228676 1.1650001 0.11791783
-0.026643787 0.19105275 1.171 0.11791783
-0.032555606 0.188823 1.1440001 0.11791783
-0.046613649 0.19282134 1.1419168 0.11791783
0.017799275 0.081526496 1.1650001 0.11704401
0.0022928303 0.082667448 1.1655 0.11704401
0.010045216 0.082631759 1.1650001 0.11704401
0.025581758 0.082730353 1.166375 0.11704401
0.033935141 0.082780436 1.1648571 0.11704401
0.042156115 0.082608826 1.1646667 0.11704401
0.0022970708 0.086125709 1.1673335 0.11704401
0.010804002 0.08685407 1.1671667 0.11704401
0.017293936 0.086749084 1.1682501 0.11704401
0.025422763 0.088973515 1.1729091 0.11704401
0.028974788 0.086248681 1.169 0.11704401
0.034471113 0.086101115 1.1670001 0.11704401
0.042239934 0.086101115 1.1670001 0.11704401
0.0023056064 0.089801945 1.1718334 0.11704401
0.00935815 0.090146892 1.1715001 0.11704401
0.018355172 0.090052493 1.1722 0.11704401
0.034141522 0.08965569 1.1720001 0.11704401
0.041788515 0.089984603 1.1721429 0.11704401
0.0023114972 0.093367897 1.1746668 0.11704401
0.010119239 0.093295023 1.17375 0.11704401
0.017942928 0.093341388 1.1743335 0.11704401
0.02579394 0.093473859 1.176 0.11704401
0.033582006 0.093367882 1.1746668 0.11704401
0.041377086 0.093314894 1.174 0.11704401
-0.0055377064 0.096137375 1.1812501 0.11704401
0.0023233227 0.096117042 1.1810001 0.11704401
0.010176238 0.096055999 1.18025 0.11704401
0.018054333 0.09617129 1.1816667 0.11704401
0.025913149 0.09615773 1.1815 0.11704401
0.033744644 0.096062779 1.1803334 0.11704401
0.041588552 0.096035652 1.1800001 0.11704401
0.0023417054 0.099167906 1.1906668 0.11704401
0.010262464 0.099133208 1.19025 0.11704401
0.018191837 0.099167906 1.1906667 0.11704401
0.026109125 0.099154018 1.1905001 0.11704401
0.033963829 0.098945796 1.1880001 0.11704401
0.041905753 0.099029087 1.189 0.11704401
0.0023508642 0.10180119 1.1950001 0.11704401
0.011059678 0.10254413 1.1948334 0.11704401
0.017791472 0.10264122 1.1942002 0.11704401
0.026979258 0.10260155 1.1955001 0.11704401
0.033641625 0.10250378 1.1926 0.11704401
0.041806918 0.10250378 1.1926 0.11704401
0.043217208 0.10285123 1.194 0.11704401
0.049217712 0.16196288 1.1236668 0.47203675
0.035950448 0.16603412 1.1320001 0.47203675
0.038649064 0.1645864 1.1270001 0.47203675
0.042615172 0.1633694 1.1186668 0.47203675
0.046718497 0.16389406 1.115 0.47203675
0.034341171 0.16998741 1.1262858 0.47203675
0.038614772 0.16765115 1.126 0.47203675
0.041992791 0.16695933 1.1182858 0.47203675
0.040841222 0.17039156 1.109 0.47203675
0.033609211 0.17509241 1.1256667 0.47203675
0.03624687 0.17192949 1.1190001 0.47203675
0.044118274 0.17051893 1.103 0.47203675
0.03204836 0.17436844 1.1210001 0.47203675
0.034111071 0.17636947 1.1101251 0.47203675
0.028008137 0.17899153 1.13 0.47203675
0.030156899 0.17899153 1.13 0.47203675
0.037997484 0.17445327 1.108 0.47203675
0.041734163 0.17585985 1.1010001 0.47203675
0.036426153 0.17855941 1.103 0.47203675
0.043180514 0.17915259 1.0944287 0.47203675
0.028876625 0.18305822 1.1220001 0.47203675
0.031669553 0.18441471 1.1077501 0.47203675
0.028498551 0.18583238 1.1156 0.47203675
0.034076214 0.18478042 1.1005 0.47203675
0.037114263 0.18396361 1.0944 0.47203675
0.045503393 0.18027949 1.0860001 0.47203675
0.042413764 0.18343008 1.0863001 0.47203675
0.026519062 0.19327064 1.1276667 0.47203675
0.029649835 0.18760146 1.1110001 0.47203675
0.029703209 0.19005561 1.113 0.47203675
0.039452896 0.18612812 1.09 0.47203675
0.03762025 0.18940948 1.097 0.47203675
0.044900339 0.19036567 1.0965 0.47203675
0.010267891 0.16258413 1.1908333 0.11703736
0.041578677 0.16177684 1.1904445 0.11703736
-0.0053480514 0.16822009 1.1890668 0.11703736
0.0021108212 0.16855025 1.1882001 0.11703736
0.042758733 0.16353567 1.1813334 0.11703736
0.047118157 0.16307423 1.1780001 0.11703736
0.010235148 0.16882242 1.1869167 0.11703736
0.018155763 0.16902322 1.1883334 0.11703736
0.02567089 0.1681598 1.1875557 0.11703736
0.031664744 0.16763476 1.1865001 0.11703736
0.034019794 0.16925667 1.1812224 0.11703736
0.040463772 0.16669159 1.1798333 0.11703736
0.048321977 0.16559494 1.1800001 0.11703736
0.026425166 0.17177908 1.1828573 0.11703736
-0.0089430874 0.17433035 1.1860001 0.11703736
-0.005359184 0.17702472 1.1826668 0.11703736
-0.0032993909 0.17291065 1.184 0.11703736
7.7778233e-05 0.17291065 1.184 0.11703736
0.0025317373 0.17638841 1.1826364 0.11703736
0.010198868 0.17610715 1.1828126 0.11703736
0.017890446 0.17645071 1.1822308 0.11703736
0.025914581 0.17705001 1.1815834 0.11703736
0.031297792 0.17683834 1.17275 0.11703736
-0.014509214 0.18469375 1.1801876 0.11703736
-0.0062458725 0.18351573 1.1798183 0.11703736
0.0026003681 0.18316731 1.1793751 0.11703736
0.010419557 0.18365031 1.1784618 0.11703736
0.019501856 0.18184371 1.1786667 0.11703736
0.025035227 0.18322469 1.1797502 0.11703736
0.02914829 0.18068731 1.176 0.11703736
0.017694518 0.18551782 1.1765 0.11703736
0.025397083 0.18649095 1.1750001 0.11703736
-0.0039472338 0.18643741 1.1756001 0.11703736
0.0017553952 0.18687633 1.1762501 0.11703736
0.0090298587 0.18755537 1.177 0.11703736
-0.014658053 0.19245237 1.1741334 0.11703736
-0.0052410658 0.19160619 1.1723077 0.11703736
0.002306266 0.19124919 1.1722223 0.11703736
0.010115265 0.19247925 1.1729375 0.11703736
0.017715389 0.19215703 1.1728183 0.11703736
0.023497134 0.19026235 1.173 0.11703736
-0.0065919752 0.19517229 1.169 0.11703736
0.0022997155 0.19517229 1.169 0.11703736
0.020083098 0.19517229 1.169 0.11703736
0.0022948084 0.20032692 1.1666669 0.11703736
0.010052163 0.20017797 1.1658124 0.11703736
-0.048493966 0.26863754 1.0215001 0.50526351
-0.055048935 0.26842344 1.0170001 0.50526351
-0.069774508 0.2719703 1.0122143 0.50526351
-0.06269481 0.27297053 1.0131053 0.50526351
-0.055021469 0.27235952 1.0153335 0.50526351
-0.047468323 0.27375594 1.0273334 0.50526351
-0.051269472 0.27469793 1.0187501 0.50526351
-0.048351545 0.27366167 1.0185001 0.50526351
-0.079095259 0.27262554 0.99800009 0.50526351
-0.075564779 0.27423087 1.0037501 0.50526351
-0.047544282 0.27941561 1.0290002 0.50526351
-0.087093316 0.27165192 0.99000007 0.50526351
-0.080185324 0.269642 0.99300003 0.50526351
-0.070490777 0.27563018 1.00625 0.50526351
-0.051797144 0.28112626 1.021 0.50526351
-0.048501879 0.28195509 1.0216666 0.50526351
-0.08436916 0.27489159 0.99560004 0.50526351
-0.062298298 0.28122023 1.0118824 0.50526351
-0.055129804 0.28049996 1.0136364 0.50526351
-0.050683282 0.2816661 1.0265 0.50526351
-0.047822148 0.28432569 1.035 0.50526351
-0.070034869 0.28037834 1.0062728 0.50526351
-0.077594467 0.28126824 1.0047647 0.50526351
-0.047121171 0.2866739 1.034 0.50526351
-0.067153774 0.28290084 1.01 0.50526351
-0.055914916 0.28258774 1.0081999 0.50526351
-0.053555243 0.28856885 1.0144 0.50526351
-0.04824869 0.2875731 1.0163333 0.50526351
-0.047804747 0.29482207 1.049 0.50526351
-0.062798664 0.28902993 1.0136154 0.50526351
-0.055539157 0.28531006 1.0083333 0.50526351
-0.053167276 0.29191691 1.018 0.50526351
-0.063318692 0.25848618 1.0526667 0.56907958
-0.060940582 0.25888133 1.0461667 0.56907958
-0.05608419 0.25739816 1.0440001 0.56907958
-0.052841909 0.25916353 1.0500001 0.56907958
-0.065882735 0.26140893 1.051 0.56907958
-0.052942559 0.26265785 1.052 0.56907958
-0.075446963 0.25852025 1.0315001 0.56907958
-0.073033385 0.26039997 1.039 0.56907958
-0.069369435 0.26148596 1.0433334 0.56907958
-0.062437128 0.26152775 1.0435001 0.56907958
-0.054673225 0.26338997 1.044143 0.56907958
-0.073998399 0.25884029 1.0250001 0.56907958
-0.072541341 0.26060796 1.0320001 0.56907958
-0.068882011 0.26210964 1.036 0.56907958
-0.062104717 0.26212314 1.0380001 0.56907958
-0.074070588 0.26104382 1.026 0.56907958
-0.06925007 0.26416266 1.0298001 0.56907958
-0.061647892 0.26410243 1.0303335 0.56907958
-0.054541178 0.26478681 1.0362858 0.56907958
-0.04866159 0.26712596 1.046 0.56907958
-0.05318553 0.26626605 1.0296 0.56907958
-0.049087383 0.2670117 1.034 0.56907958
-0.06213228 0.26687947 1.0222001 0.56907958
-0.053737897 0.26766568 1.0215 0.56907958
-0.048755068 0.26715699 1.0270001 0.56907958
0.037071552 0.21131401 1.0810001 0.25208548
0.035109341 0.22633335 1.0840001 0.25208548
0.026260411 0.23317793 1.10175 0.25208548
0.031390809 0.23238449 1.098 0.25208548
0.032937657 0.23423776 1.0940001 0.25208548
0.035135373 0.23265707 1.0846667 0.25208548
0.035978023 0.230416 1.079 0.25208548
0.047305681 0.23062955 1.08 0.25208548
0.026808843 0.24092245 1.1028334 0.25208548
0.031390809 0.23969221 1.098 0.25208548
0.042325281 0.23457472 1.0840001 0.25208548
0.034219194 0.24041419 1.093143 0.25208548
0.039452896 0.23794581 1.09 0.25208548
0.042637274 0.24050815 1.0866001 0.25208548
0.048712917 0.23865376 1.0885001 0.25208548
0.050146498 0.24195324 1.0907143 0.25208548
0.023228006 0.24376193 1.107 0.25208548
0.035898369 0.24211298 1.087 0.25208548
0.024727514 0.2482399 1.1068572 0.25208548
0.027375856 0.24951302 1.1045001 0.25208548
0.031941377 0.24931517 1.099 0.25208548
0.035387527 0.24991839 1.0925001 0.25208548
0.036588315 0.24624856 1.087 0.25208548
0.041013524 0.24647725 1.0874002 0.25208548
0.043129407 0.24989194 1.0912499 0.25208548
0.033557817 0.25723332 1.1007001 0.25208548
0.036879186 0.2558507 1.0956668 0.25208548
0.042729948 0.25553292 1.0943 0.25208548
0.017733473 0.27285132 1.0928334 0.1163228
0.026010854 0.26934496 1.0912501 0.1163228
0.034119897 0.26989526 1.0918 0.1163228
0.044012833 0.2711091 1.09 0.1163228
0.025898233 0.27335015 1.0865626 0.1163228
0.033983447 0.27310029 1.0855715 0.1163228
0.042174131 0.27229643 1.0844167 0.1163228
0.019504974 0.27537274 1.0872 0.1163228
-0.0020070628 0.2791886 1.09325 0.1163228
-0.0065041916 0.28161046 1.0869092 0.1163228
-0.0040812711 0.27991071 1.0920001 0.1163228
0.011661055 0.28190768 1.0940001 0.1163228
0.014607253 0.27783611 1.092 0.1163228
0.036341265 0.27606666 1.0796667 0.1163228
0.040689696 0.27570838 1.0788 0.1163228
0.017596599 0.28104815 1.0843751 0.1163228
0.025294684 0.27979299 1.0828334 0.1163228
0.030933384 0.27837807 1.082 0.1163228
0.034060199 0.2816453 1.0792501 0.1163228
0.045398645 0.27876353 1.0835001 0.1163228
0.041838739 0.2813209 1.0767332 0.1163228
-0.0019955887 0.28379753 1.0870001 0.1163228
0.027294651 0.28261486 1.0805 0.1163228
0.010454248 0.28925502 1.092 0.1163228
0.01248485 0.28819641 1.0880001 0.1163228
-0.012619905 0.28635308 1.0823332 0.1163228
-0.0055956831 0.28813356 1.0838751 0.1163228
-0.0019955887 0.28896603 1.087 0.1163228
0.016541477 0.28678432 1.0826668 0.1163228
0.023732182 0.28557929 1.082 0.1163228
0.025900058 0.28883561 1.077111 0.1163228
0.0011079531 0.29079986 1.09 0.1163228
0.017950159 0.29020765 1.079 0.1163228
0.033540007 0.28780293 1.0756364 0.1163228
0.04134012 0.28602487 1.0744001 0.1163228
-0.0071144341 0.29112104 1.0796667 0.1163228
0.042028785 0.29004106 1.0711333 0.1163228
-0.0019955887 0.2931 1.087 0.1163228
0.0010968047 0.29210359 1.0795 0.1163228
0.0021462701 0.29417855 1.0910001 0.1163228
0.0089734355 0.29198632 1.0803334 0.1163228
0.012473376 0.2931 1.087 0.1163228
0.034016363 0.29152983 1.0711112 0.1163228
-0.0057741664 0.2948083 1.0760001 0.1163228
0.0005286755 0.29457247 1.0781112 0.1163228
0.0094537558 0.29432175 1.0795715 0.1163228
0.016926482 0.29432651 1.0745 0.1163228
0.026536869 0.29276776 1.0706668 0.1163228
-0.053395692 0.1917751 1.1400001 0.1327033
-0.05819872 0.19381106 1.1350001 0.1327033
-0.05453008 0.1942718 1.1335 0.1327033
-0.061655991 0.19995552 1.143 0.1327033
-0.046360519 0.19610009 1.1357501 0.1327033
-0.058224361 0.19929627 1.1355001 0.1327033
-0.054266036 0.19917741 1.13175 0.1327033
-0.045478623 0.20066696 1.1324617 0.1327033
-0.038469747 0.1994772 1.1331111 0.1327033
-0.053288165 0.20095058 1.1281251 0.1327033
-0.049289066 0.20131581 1.1286668 0.1327033
-0.061635703 0.20832705 1.1508 0.1327033
-0.058583297 0.20704436 1.1425002 0.1327033
-0.053332649 0.2072565 1.1347501 0.1327033
-0.047838263 0.20762682 1.135 0.1327033
-0.045414809 0.21061189 1.1391429 0.1327033
-0.054632109 0.21143846 1.1416 0.1327033
-0.060701024 0.2185729 1.1517501 0.1327033
-0.056075811 0.21816976 1.1467501 0.1327033
-0.052799061 0.21720944 1.1426667 0.1327033
-0.046752654 0.21722236 1.1400666 0.1327033
-0.038466144 0.21783996 1.1365001 0.1327033
-0.037386481 0.21654829 1.1388 0.1327033
-0.061787251 0.22368085 1.1415001 0.1327033
-0.055629298 0.22165962 1.1413335 0.1327033
-0.043166764 0.22009881 1.1370001 0.1327033
-0.031261139 0.22000203 1.1365001 0.1327033
-0.054038979 0.22409566 1.1326251 0.1327033
-0.045945596 0.22428915 1.1332145 0.1327033
-0.037649851 0.22483346 1.1336251 0.1327033
-0.030343628 0.22545567 1.1352729 0.1327033
-0.02805691 0.22245638 1.138 0.1327033
-0.061065871 0.22685994 1.1347778 0.1327033
-0.052150916 0.22635497 1.1286668 0.1327033
-0.023254465 0.22811356 1.1360002 0.1327033
-0.048208356 0.22703707 1.1285 0.1327033
-0.062294941 0.22969072 1.131 0.1327033
-0.055806398 0.23276153 1.1302501 0.1327033
-0.054297622 0.23243666 1.1286666 0.1327033
-0.046963457 0.23297338 1.1286666 0.1327033
-0.04345718 0.23120074 1.1305001 0.1327033
-0.037265781 0.23252785 1.1313572 0.1327033
-0.030099645 0.23341291 1.1334168 0.1327033
-0.022532308 0.23318444 1.1323125 0.1327033
-0.062104806 0.23327772 1.1275555 0.1327033
-0.039624721 0.23562074 1.1285 0.1327033
-0.054581873 0.24070354 1.1271876 0.1327033
-0.045992564 0.24061123 1.12675 0.1327033
-0.037408352 0.24052925 1.1263752 0.1327033
-0.029594619 0.2390686 1.1306001 0.1327033
-0.025710912 0.23915708 1.13 0.1327033
-0.021963563 0.24090616 1.1267145 0.1327033
-0.0132549 0.23863888 1.1306001 0.1327033
-0.030223807 0.24225497 1.1265714 0.1327033
-0.043496091 0.24919982 1.1268333 0.1327033
-0.02858351 0.19282247 1.1593333 0.11674084
-0.029471293 0.19326097 1.151 0.11674084
-0.037861142 0.19268362 1.1334668 0.11674084
-0.034548834 0.18999664 1.138 0.11674084
-0.030842973 0.1937506 1.141 0.11674084
-0.024344081 0.19603047 1.1675 0.11674084
-0.011037821 0.19517229 1.169 0.11674084
-0.032280516 0.19369721 1.1343334 0.11674084
-0.021353351 0.20006916 1.165889 0.11674084
-0.014336272 0.20021117 1.166 0.11674084
-0.0054664412 0.20023242 1.1661251 0.11674084
-0.026279736 0.20052293 1.1550001 0.11674084
-0.029215718 0.20198882 1.1496 0.11674084
-0.024194645 0.20255113 1.1603334 0.11674084
-0.032327946 0.19830345 1.136 0.11674084
-0.03177483 0.20152368 1.1420001 0.11674084
-0.035321392 0.20255649 1.1396667 0.11674084
-0.020914979 0.20505171 1.1620001 0.11674084
-0.014286143 0.20505171 1.1620001 0.11674084
-0.0054476964 0.20505171 1.1620001 0.11674084
0.0022866225 0.20516934 1.1626668 0.11674084
-0.027148396 0.2076977 1.1545999 0.11674084
-0.021731917 0.20943278 1.1573635 0.11674084
-0.014225614 0.20968874 1.1571251 0.11674084
-0.005650504 0.20972399 1.1585333 0.11674084
0.0022800649 0.20898959 1.1593333 0.11674084
-0.037859075 0.20876777 1.1400625 0.11674084
-0.032584064 0.2100352 1.1450001 0.11674084
-0.029599102 0.21011961 1.15 0.11674084
-0.024041735 0.21223354 1.153 0.11674084
-0.0040058848 0.21563695 1.156143 0.11674084
0.00062817853 0.21641976 1.16075 0.11674084
-0.027885443 0.21451779 1.1488001 0.11674084
-0.021771753 0.21729919 1.1488889 0.11674084
-0.020779511 0.21470502 1.1545 0.11674084
-0.014192984 0.21470502 1.1545001 0.11674084
-0.02988103 0.21729627 1.1416 0.11674084
-0.014140491 0.21830291 1.1503334 0.11674084
-0.0064915158 0.2184718 1.1512222 0.11674084
-0.025273355 0.2197455 1.1426667 0.11674084
-0.0021185919 0.22119524 1.154 0.11674084
-0.022228608 0.22401214 1.1404287 0.11674084
-0.014169717 0.22583652 1.1414376 0.11674084
-0.013006769 0.22197008 1.1466668 0.11674084
-0.0047226539 0.22250918 1.1472 0.11674084
-0.0055645076 0.22519068 1.1409 0.11674084
-0.0064091831 0.22810602 1.1365001 0.11674084
-0.01508631 0.22914951 1.1390001 0.11674084
-0.0020901361 0.23013091 1.1385 0.11674084
-0.013952659 0.23371141 1.1348751 0.11674084
-0.0055325436 0.23383106 1.1343999 0.11674084
-0.014144114 0.24187064 1.1267273 0.1171025
-0.037861962 0.2476632 1.1239166 0.1171025
-0.029822543 0.24621646 1.1230001 0.1171025
-0.022354154 0.24520425 1.1232501 0.1171025
-0.013811151 0.2462988 1.1233751 0.1171025
-0.005149914 0.24789196 1.1246667 0.1171025
-0.022275731 0.24967749 1.1193751 0.1171025
-0.030490769 0.2506592 1.119 0.1171025
-0.013766468 0.25082633 1.11975 0.1171025
-0.0065785889 0.25103706 1.1195 0.1171025
-0.036680207 0.25152802 1.1205001 0.1171025
-0.047006145 0.25421867 1.1253334 0.1171025
-0.045228541 0.25511542 1.1167779 0.1171025
-0.038364373 0.25547281 1.1168001 0.1171025
-0.0020647396 0.25620413 1.1246667 0.1171025
-0.030350775 0.2556971 1.1162224 0.1171025
-0.022562005 0.25564647 1.1160001 0.1171025
-0.0137206 0.2552934 1.1160001 0.1171025
-0.0051141139 0.25669277 1.1164445 0.1171025
-0.045351699 0.25840312 1.111125 0.1171025
-0.037459929 0.25913563 1.1120001 0.1171025
-0.030444719 0.25919396 1.1110001 0.1171025
-0.021752916 0.25914204 1.1107779 0.1171025
-0.013642264 0.25909755 1.1095835 0.1171025
-0.0065186499 0.25928333 1.1092501 0.1171025
-0.045254283 0.26416069 1.1086876 0.1171025
-0.038007285 0.2647807 1.108143 0.1171025
-0.031525169 0.26257464 1.1077143 0.1171025
-0.022043323 0.26216248 1.1076666 0.1171025
-0.0020451571 0.2622501 1.1140001 0.1171025
-0.050447907 0.26270723 1.107 0.1171025
-0.01570078 0.26246992 1.1060001 0.1171025
-0.013267898 0.26547223 1.1035 0.1171025
-0.0065651271 0.26547873 1.1025 0.1171025
-0.0025640703 0.26500225 1.11 0.1171025
-0.030052053 0.2661199 1.1029091 0.1171025
-0.021963244 0.26611182 1.1036668 0.1171025
-0.045222521 0.27135077 1.1079168 0.1171025
-0.035648201 0.2685363 1.105 0.1171025
-0.002032306 0.26902235 1.107 0.1171025
-0.039209712 0.27174741 1.1066667 0.1171025
-0.038035538 0.27413782 1.1021819 0.1171025
-0.03086862 0.27114624 1.0993999 0.1171025
-0.021870848 0.27021196 1.099 0.1171025
-0.013963468 0.27013281 1.0992857 0.1171025
-0.0037646824 0.27113366 1.1013334 0.1171025
-0.01320703 0.27380279 1.0937692 0.1171025
