# .PCD v0.7 - Point Cloud Data file format
VERSION 0.7
FIELDS x y z rgba
SIZE 4 4 4 4
TYPE F F F U
COUNT 1 1 1 1
WIDTH 1109
HEIGHT 1
VIEWPOINT 0 0 0 1 0 0 0
POINTS 1109
DATA ascii
-0.2627705 0.051275484 1.133 4285952614
-0.26061603 0.051275484 1.133 4285886821
-0.25823343 0.051230226 1.1320001 4285886821
-0.25608087 0.051230226 1.1320001 4286018407
-0.25347969 0.051139712 1.13 4286084201
-0.25155333 0.051184967 1.131 4286149994
-0.24940266 0.051184967 1.131 4286149994
-0.24747062 0.051230226 1.1320001 4286149994
-0.24531806 0.051230226 1.1320001 4286084201
-0.24338029 0.051275484 1.133 4285952615
-0.24122584 0.051275484 1.133 4286149994
-0.23907137 0.051275484 1.133 4286149994
-0.23712601 0.051320743 1.1340001 4286149994
-0.23496965 0.051320743 1.1340001 4286149994
-0.23240265 0.051230226 1.1320001 4286084201
-0.23045351 0.051275484 1.133 4286018408
-0.22829904 0.051275484 1.133 4285952615
-0.22614457 0.051275484 1.133 4285952615
-0.2239901 0.051275484 1.133 4286018408
-0.22203143 0.051320743 1.1340001 4286084201
-0.21987507 0.051320743 1.1340001 4286084201
-0.21771871 0.051320743 1.1340001 4285952615
-0.21575241 0.051365998 1.1350001 4285952615
-0.21359414 0.051365998 1.1350001 4286084201
-0.21143587 0.051365998 1.1350001 4286149994
-0.209462 0.051411252 1.136 4286084201
-0.2074843 0.051456511 1.1370001 4286149742
-0.20532222 0.051456511 1.1370001 4286149742
-0.20316015 0.051456511 1.1370001 4286149742
-0.20099808 0.051456511 1.1370001 4286149742
-0.19883601 0.051456511 1.1370001 4286149742
-0.19667393 0.051456511 1.1370001 4286149742
-0.19451186 0.051456511 1.1370001 4286149742
-0.19251896 0.051501766 1.138 4286149742
-0.19018772 0.051456511 1.1370001 4286149996
-0.18802564 0.051456511 1.1370001 4286084203
-0.1857001 0.051411252 1.136 4286018410
-0.18353994 0.051411252 1.136 4286018410
-0.18137977 0.051411252 1.136 4286018410
-0.17937735 0.051456511 1.1370001 4286084203
-0.17721528 0.051456511 1.1370001 4286149996
-0.17505321 0.051456511 1.1370001 4286149996
-0.17289114 0.051456511 1.1370001 4286084201
-0.17087923 0.051501766 1.138 4286018408
-0.16856699 0.051456511 1.1370001 4286018408
-0.16640492 0.051456511 1.1370001 4286084201
-0.16424285 0.051456511 1.1370001 4286084201
-0.16208076 0.051456511 1.1370001 4286018408
-0.16005935 0.051501766 1.138 4285952617
-0.15789537 0.051501766 1.138 4286018410
-0.15573141 0.051501766 1.138 4285886824
-0.15356743 0.051501766 1.138 4285952617
-0.1512704 0.051456511 1.1370001 4285952617
-0.14897721 0.051411252 1.136 4286018410
-0.14681703 0.051411252 1.136 4286018410
-0.14478418 0.051456511 1.1370001 4286018410
-0.14274755 0.051501766 1.138 4286018410
-0.14058359 0.051501766 1.138 4286018410
-0.13841961 0.051501766 1.138 4285821288
-0.13625564 0.051501766 1.138 4285821288
-0.13397382 0.051456511 1.1370001 4285821288
-0.13181175 0.051456511 1.1370001 4285755495
-0.12964967 0.051456511 1.1370001 4285821288
-0.1274876 0.051456511 1.1370001 4285821288
-0.12532553 0.051456511 1.1370001 4285821288
-0.12316346 0.051456511 1.1370001 4285821288
-0.12100139 0.051456511 1.1370001 4285821288
-0.11883932 0.051456511 1.1370001 4285755495
-0.11667725 0.051456511 1.1370001 4285689956
-0.11441446 0.051411252 1.136 4285755749
-0.11215547 0.051365998 1.1350001 4285887335
-0.1099972 0.051365998 1.1350001 4286018921
-0.10783893 0.051365998 1.1350001 4285953128
-0.10577377 0.051411252 1.136 4285887335
-0.1036136 0.051411252 1.136 4285821542
-0.10154273 0.051456511 1.1370001 4285821542
-0.099380665 0.051456511 1.1370001 4285755749
-0.097218588 0.051456511 1.1370001 4285755749
-0.094805703 0.051320743 1.1340001 4285821542
-0.092567638 0.051275484 1.133 4285821542
-0.090492971 0.051320743 1.1340001 4285887334
-0.088336602 0.051320743 1.1340001 4285953127
-0.086180232 0.051320743 1.1340001 4285887334
-0.084097959 0.051365998 1.1350001 4285821541
-0.08193969 0.051365998 1.1350001 4285755749
-0.079922006 0.051456511 1.1370001 4285755749
-0.077759936 0.051456511 1.1370001 4285821542
-0.07559786 0.051456511 1.1370001 4285821542
-0.073435791 0.051456511 1.1370001 4285887081
-0.071148336 0.051365998 1.1350001 4285887081
-0.068868503 0.051275484 1.133 4285756263
-0.066655159 0.051230226 1.1320001 4285756263
-0.064502589 0.051230226 1.1320001 4285756263
-0.062350027 0.051230226 1.1320001 4285756263
-0.060197461 0.051230226 1.1320001 4285756265
-0.05809617 0.051275484 1.133 4285756265
-0.055941705 0.051275484 1.133 4285756265
-0.053787239 0.051275484 1.133 4285690472
-0.051587202 0.051230226 1.1320001 4285690474
-0.049390964 0.051184967 1.131 4285690474
-0.04728207 0.051230226 1.1320001 4285624681
-0.045129504 0.051230226 1.1320001 4285624681
-0.043014903 0.051275484 1.133 4285624427
-0.040860437 0.051275484 1.133 4285558634
-0.038705971 0.051275484 1.133 4285558634
-0.036551505 0.051275484 1.133 4285492841
-0.03439704 0.051275484 1.133 4285755497
-0.032214116 0.051230226 1.1320001 4285755497
-0.03006155 0.051230226 1.1320001 4285755497
-0.027908985 0.051230226 1.1320001 4285689704
-0.025756419 0.051230226 1.1320001 4285689704
-0.023603855 0.051230226 1.1320001 4285689704
-0.021451289 0.051230226 1.1320001 4285689704
-0.019298725 0.051230226 1.1320001 4285755497
-0.017146159 0.051230226 1.1320001 4285689704
-0.015006838 0.051275484 1.133 4285689704
-0.012863716 0.051320743 1.1340001 4285755497
-0.010707348 0.051320743 1.1340001 4285821290
-0.0085585201 0.051365998 1.1350001 4285821290
-0.0064002499 0.051365998 1.1350001 4285821290
-0.0042382427 0.051320743 1.1340001 4285689704
-0.0020818745 0.051320743 1.1340001 4285623911
7.4493677e-05 0.051320743 1.1340001 4285756265
0.0022288945 0.051275484 1.133 4285822058
0.0043833614 0.051275484 1.133 4285822058
0.0065320577 0.051230226 1.1320001 4285756265
0.0086922944 0.051275484 1.133 4285690472
0.010846761 0.051275484 1.133 4285690472
0.013012703 0.051320743 1.1340001 4285690472
0.01516907 0.051320743 1.1340001 4285756265
0.017310161 0.051275484 1.133 4285690472
0.019464627 0.051275484 1.133 4285690472
0.021600012 0.051230226 1.1320001 4285756265
0.023731595 0.051184967 1.131 4285756265
0.025790721 0.051003944 1.1270001 4285690472
0.027933778 0.051003944 1.1270001 4285690472
0.030076837 0.051003944 1.1270001 4285690472
0.032219894 0.051003944 1.1270001 4285756267
0.034454424 0.051139712 1.13 4285690733
0.036603186 0.051139712 1.13 4285690733
0.038751945 0.051139712 1.13 4285756524
0.040900707 0.051139712 1.13 4285822317
0.043087568 0.051184967 1.131 4285822317
0.04523823 0.051184967 1.131 4285822317
0.047346994 0.051139712 1.13 4285756778
0.049451955 0.051094458 1.1290001 4285756778
0.051598813 0.051094458 1.1290001 4285690985
0.053793281 0.051139712 1.13 4285756778
0.055942044 0.051139712 1.13 4285888110
0.058090802 0.051139712 1.13 4285888110
0.060186256 0.051094458 1.1290001 4285888110
0.062333118 0.051094458 1.1290001 4285822317
0.064479977 0.051094458 1.1290001 4285822319
0.066626839 0.051094458 1.1290001 4285822319
0.068773702 0.051094458 1.1290001 4285887853
0.070983373 0.051139712 1.13 4285953646
0.073132135 0.051139712 1.13 4286019439
0.07501442 0.050958689 1.126 4286085232
0.077155575 0.050958689 1.126 4286085232
0.07929673 0.050958689 1.126 4286085232
0.081510209 0.051003944 1.1270001 4286019439
0.083653271 0.051003944 1.1270001 4286019439
0.085796326 0.051003944 1.1270001 4285822060
0.087861352 0.050958689 1.126 4285887853
0.090002507 0.050958689 1.126 4285887853
0.092061833 0.050913431 1.125 4285953646
0.094201081 0.050913431 1.125 4285953644
0.096254699 0.050868176 1.1240001 4285953644
0.098392054 0.050868176 1.1240001 4285953644
0.10061885 0.050913431 1.125 4285953644
0.1027581 0.050913431 1.125 4285888364
0.10480411 0.050868176 1.1240001 4285888364
0.10684633 0.050822921 1.123 4285954157
0.10888473 0.050777663 1.1220001 4285954157
0.11101828 0.050777663 1.1220001 4285953903
0.11325268 0.050822921 1.123 4285953903
0.11549088 0.050868176 1.1240001 4286019696
0.11762822 0.050868176 1.1240001 4286019696
0.11987213 0.050913431 1.125 4286019698
0.12190294 0.050868176 1.1240001 4285953905
0.12392993 0.050822921 1.123 4285953905
0.12595312 0.050777663 1.1220001 4286019698
0.12842916 0.050913431 1.125 4286019698
0.13056841 0.050913431 1.125 4285953905
0.13270767 0.050913431 1.125 4286019699
0.13520651 0.051049199 1.128 4286085492
0.13808206 0.051320743 1.1340001 4286480509
0.14085677 0.051547021 1.1390001 4286151544
0.14339934 0.051682789 1.1420001 4285231212
0.14633574 0.051954329 1.148 4284836454
0.14864811 0.051999584 1.149 4284770920
0.15096428 0.052044842 1.1500001 4285099885
0.15315107 0.052044842 1.1500001 4285034092
0.15533786 0.052044842 1.1500001 4285165678
0.15752465 0.052044842 1.1500001 4285034864
0.15971144 0.052044842 1.1500001 4285034864
0.16189824 0.052044842 1.1500001 4285231471
0.16408503 0.052044842 1.1500001 4285297264
0.16627182 0.052044842 1.1500001 4285428848
0.16831213 0.051999584 1.149 4285494641
0.17049703 0.051999584 1.149 4285560434
0.17253162 0.051954329 1.148 4285560434
0.17471461 0.051954329 1.148 4285626227
0.17674351 0.05190907 1.1470001 4285494641
0.17892461 0.05190907 1.1470001 4285626227
0.18126358 0.051954329 1.148 4285692020
0.18360637 0.051999584 1.149 4285626481
0.18611467 0.052090101 1.151 4285758067
0.18846695 0.052135356 1.1520001 4283981655
0.19049205 0.052090101 1.151 4279112973
0.19268075 0.052090101 1.151 4279507731
0.19453083 0.051999584 1.149 4284442206
0.19654451 0.051954329 1.148 4285889653
0.1987275 0.051954329 1.148 4285626481
-0.37834188 0.054561749 1.1570001 4285758067
-0.3764669 0.054608908 1.1580001 4285758067
-0.37394169 0.054561749 1.1570001 4285758067
-0.37174159 0.054561749 1.1570001 4285823860
-0.36986089 0.054608908 1.1580001 4285889653
-0.36765888 0.054608908 1.1580001 4285823860
-0.36545688 0.054608908 1.1580001 4285758067
-0.36325487 0.054608908 1.1580001 4285758067
-0.36105287 0.054608908 1.1580001 4285823860
-0.35885084 0.054608908 1.1580001 4285758067
-0.35634086 0.054561749 1.1570001 4285692274
-0.35414076 0.054561749 1.1570001 4285560688
-0.35194063 0.054561749 1.1570001 4285626481
-0.34974054 0.054561749 1.1570001 4285560688
-0.34754044 0.054561749 1.1570001 4285625968
-0.34534034 0.054561749 1.1570001 4285625968
-0.34314021 0.054561749 1.1570001 4285625968
-0.34094012 0.054561749 1.1570001 4285691761
-0.3390328 0.054608908 1.1580001 4285625968
-0.33683079 0.054608908 1.1580001 4285560175
-0.33462879 0.054608908 1.1580001 4285625968
-0.33242679 0.054608908 1.1580001 4285625968
-0.3299396 0.054561749 1.1570001 4285560175
-0.32773951 0.054561749 1.1570001 4285494382
-0.32553941 0.054561749 1.1570001 4285493612
-0.32333928 0.054561749 1.1570001 4285362026
-0.32141677 0.054608908 1.1580001 4285296233
-0.31893909 0.054561749 1.1570001 4285230440
-0.31564394 0.054373115 1.153 4285427561
-0.31236401 0.054184485 1.149 4285756526
-0.30558988 0.053382799 1.1320001 4286085232
-0.30290121 0.053288482 1.13 4286019439
-0.30022013 0.053194165 1.128 4285952874
-0.29807517 0.053194165 1.128 4285887081
-0.29593021 0.053194165 1.128 4286018408
-0.29404572 0.053241327 1.1290001 4286018408
-0.29164031 0.053194165 1.128 4286215787
-0.28975198 0.053241327 1.1290001 4286018408
-0.28760514 0.053241327 1.1290001 4285952615
-0.28571111 0.053288482 1.13 4286084201
-0.28381327 0.053335641 1.131 4286149994
-0.28166261 0.053335641 1.131 4286084201
-0.28000623 0.053429957 1.133 4286018408
-0.27785176 0.053429957 1.133 4286018407
-0.27569729 0.053429957 1.133 4286018407
-0.27354282 0.053429957 1.133 4286084200
-0.2716279 0.053477116 1.1340001 4286084200
-0.26970917 0.053524274 1.1350001 4286084200
-0.26755092 0.053524274 1.1350001 4286084200
-0.26562643 0.053571429 1.136 4286018407
-0.26346627 0.053571429 1.136 4285952614
-0.26130608 0.053571429 1.136 4285886821
-0.25914592 0.053571429 1.136 4285886821
-0.25608087 0.053382799 1.1320001 4285952614
-0.25415263 0.053429957 1.133 4286084201
-0.25199816 0.053429957 1.133 4286084201
-0.25006422 0.053477116 1.1340001 4286084201
-0.24790785 0.053477116 1.1340001 4286084201
-0.24596819 0.053524274 1.1350001 4286018408
-0.24380992 0.053524274 1.1350001 4285952615
-0.24165165 0.053524274 1.1350001 4286018408
-0.23949338 0.053524274 1.1350001 4286018408
-0.23754422 0.053571429 1.136 4286084201
-0.23538405 0.053571429 1.136 4286084201
-0.23301858 0.053524274 1.1350001 4286084201
-0.23086031 0.053524274 1.1350001 4286018408
-0.22850055 0.053477116 1.1340001 4285886822
-0.22654375 0.053524274 1.1350001 4285886822
-0.22438549 0.053524274 1.1350001 4285952615
-0.22242302 0.053571429 1.136 4286018408
-0.22026286 0.053571429 1.136 4286018408
-0.21810268 0.053571429 1.136 4285886822
-0.2159425 0.053571429 1.136 4285886822
-0.21397051 0.053618591 1.1370001 4286018408
-0.21180844 0.053618591 1.1370001 4286018408
-0.20983076 0.053665746 1.138 4285952615
-0.20766678 0.053665746 1.138 4286084203
-0.2056834 0.053712904 1.1390001 4286149742
-0.20351751 0.053712904 1.1390001 4286149742
-0.20135164 0.053712904 1.1390001 4286149742
-0.19918576 0.053712904 1.1390001 4286149742
-0.19701989 0.053712904 1.1390001 4286149742
-0.19502509 0.053760063 1.1400001 4286083949
-0.19285731 0.053760063 1.1400001 4286084203
-0.19052225 0.053712904 1.1390001 4285886824
-0.18835638 0.053712904 1.1390001 4285952617
-0.18602705 0.053665746 1.138 4286018410
-0.18386307 0.053665746 1.138 4286149996
-0.18185875 0.053712904 1.1390001 4286215789
-0.17985065 0.053760063 1.1400001 4286149996
-0.17768288 0.053760063 1.1400001 4286018410
-0.17551509 0.053760063 1.1400001 4285952617
-0.17334731 0.053760063 1.1400001 4286084201
-0.17117953 0.053760063 1.1400001 4286018408
-0.16886349 0.053712904 1.1390001 4286018408
-0.16669762 0.053712904 1.1390001 4286018408
-0.16453175 0.053712904 1.1390001 4286018408
-0.16250843 0.053760063 1.1400001 4286018408
-0.16034065 0.053760063 1.1400001 4285952617
-0.15817288 0.053760063 1.1400001 4285886824
-0.1560051 0.053760063 1.1400001 4285886824
-0.15383732 0.053760063 1.1400001 4285886824
-0.15153649 0.053712904 1.1390001 4285886824
-0.14923948 0.053665746 1.138 4285952617
-0.1470755 0.053665746 1.138 4285952617
-0.14491153 0.053665746 1.138 4285952617
-0.14287299 0.053712904 1.1390001 4285952617
-0.14083065 0.053760063 1.1400001 4285952617
-0.13866287 0.053760063 1.1400001 4285755495
-0.1364951 0.053760063 1.1400001 4285755495
-0.13420948 0.053712904 1.1390001 4285755495
-0.1320436 0.053712904 1.1390001 4285755495
-0.12987773 0.053712904 1.1390001 4285755495
-0.12771185 0.053712904 1.1390001 4285821288
-0.12554598 0.053712904 1.1390001 4285821288
-0.12338011 0.053712904 1.1390001 4285821288
-0.12121423 0.053712904 1.1390001 4285952874
-0.11904836 0.053712904 1.1390001 4285887081
-0.11688248 0.053712904 1.1390001 4285821542
-0.11461589 0.053665746 1.138 4285821542
-0.1123531 0.053618591 1.1370001 4285887335
-0.11019102 0.053618591 1.1370001 4285887335
-0.10802896 0.053618591 1.1370001 4285821542
-0.10586688 0.053618591 1.1370001 4285755749
-0.10379602 0.053665746 1.138 4285755749
-0.10172135 0.053712904 1.1390001 4285755749
-0.09955547 0.053712904 1.1390001 4285755749
-0.097389594 0.053712904 1.1390001 4285821542
-0.095223725 0.053712904 1.1390001 4285821542
-0.092812747 0.053571429 1.136 4285821542
-0.09065257 0.053571429 1.136 4285821541
-0.088570297 0.053618591 1.1370001 4285821541
-0.086408228 0.053618591 1.1370001 4285887334
-0.084246151 0.053618591 1.1370001 4285821541
-0.082156271 0.053665746 1.138 4285755749
-0.080062591 0.053712904 1.1390001 4285755749
-0.077965103 0.053760063 1.1400001 4285821542
-0.075797327 0.053760063 1.1400001 4285887335
-0.073629551 0.053760063 1.1400001 4285887081
-0.071461767 0.053760063 1.1400001 4285887081
-0.069172427 0.053665746 1.138 4285690470
-0.066890687 0.053571429 1.136 4285690470
-0.064673528 0.053524274 1.1350001 4285690470
-0.062515259 0.053524274 1.1350001 4285690470
-0.060356993 0.053524274 1.1350001 4285756265
-0.058249999 0.053571429 1.136 4285756265
-0.056040455 0.053524274 1.1350001 4285690472
-0.053882185 0.053524274 1.1350001 4285690472
-0.051678341 0.053477116 1.1340001 4285624681
-0.049521971 0.053477116 1.1340001 4285624681
-0.047365606 0.053477116 1.1340001 4285624681
-0.045249108 0.053524274 1.1350001 4285624681
-0.043090835 0.053524274 1.1350001 4285624427
-0.040896501 0.053477116 1.1340001 4285558634
-0.038740132 0.053477116 1.1340001 4285492841
-0.036583763 0.053477116 1.1340001 4285492841
-0.034427397 0.053477116 1.1340001 4285755497
-0.03224257 0.053429957 1.133 4285755497
-0.030114662 0.053477116 1.1340001 4285755497
-0.027958293 0.053477116 1.1340001 4285689704
-0.025801925 0.053477116 1.1340001 4285689704
-0.023645557 0.053477116 1.1340001 4285623911
-0.021489188 0.053477116 1.1340001 4285689704
-0.019349867 0.053524274 1.1350001 4285755497
-0.017191598 0.053524274 1.1350001 4285755497
-0.015046574 0.053571429 1.136 4285755497
-0.012886403 0.053571429 1.136 4285755497
-0.010726231 0.053571429 1.136 4285821290
-0.0085660601 0.053571429 1.136 4285821290
-0.0064058891 0.053571429 1.136 4285821290
-0.0042457175 0.053571429 1.136 4285755497
-0.0020873821 0.053618591 1.1370001 4285689704
7.4625059e-05 0.053571429 1.136 4285690472
0.0022328291 0.053524274 1.1350001 4285690472
0.0043872301 0.053477116 1.1340001 4285756265
0.0065493681 0.053524274 1.1350001 4285690472
0.0087076379 0.053524274 1.1350001 4285690472
0.010875481 0.053571429 1.136 4285690472
0.013035653 0.053571429 1.136 4285690472
0.015195824 0.053571429 1.136 4285756265
0.017340718 0.053524274 1.1350001 4285690472
0.019498987 0.053524274 1.1350001 4285690472
0.021638175 0.053477116 1.1340001 4285756265
0.02377356 0.053429957 1.133 4285690472
0.025928028 0.053429957 1.133 4285690472
0.028082494 0.053429957 1.133 4285690472
0.030236961 0.053429957 1.133 4285690472
0.032391429 0.053429957 1.133 4285756265
0.034545895 0.053429957 1.133 4285822319
0.03670036 0.053429957 1.133 4285822319
0.038854826 0.053429957 1.133 4285822317
0.041009296 0.053429957 1.133 4285822317
0.043163761 0.053429957 1.133 4285822317
0.045318227 0.053429957 1.133 4285822317
0.047472693 0.053429957 1.133 4285756778
0.049583357 0.053382799 1.1320001 4285756778
0.051781628 0.053429957 1.133 4285690985
0.053936094 0.053429957 1.133 4285756778
0.05609056 0.053429957 1.133 4285822317
0.058193617 0.053382799 1.1320001 4285888110
0.060292877 0.053335641 1.131 4285888110
0.062388323 0.053288482 1.13 4285822317
0.064537086 0.053288482 1.13 4285756526
0.066685848 0.053288482 1.13 4285756526
0.068895526 0.053335641 1.131 4285822060
0.071109012 0.053382799 1.1320001 4285887853
0.073132135 0.053288482 1.13 4285953646
0.075280897 0.053288482 1.13 4286019439
0.077361144 0.053241327 1.1290001 4286085232
0.079507999 0.053241327 1.1290001 4286019439
0.081727184 0.053288482 1.13 4286019439
0.083801724 0.053241327 1.1290001 4285953646
0.085948586 0.053241327 1.1290001 4285756267
0.088095441 0.053241327 1.1290001 4285822060
0.090242304 0.053241327 1.1290001 4285887853
0.092307329 0.053194165 1.128 4285887853
0.094452292 0.053194165 1.128 4285953644
0.096597247 0.053194165 1.128 4286019437
0.098742209 0.053194165 1.128 4286019437
0.10088716 0.053194165 1.128 4286019437
0.10303213 0.053194165 1.128 4285954157
0.10517708 0.053194165 1.128 4285888364
0.1072269 0.053147011 1.1270001 4285888364
0.10927291 0.053099852 1.126 4285888364
0.11141407 0.053099852 1.126 4285888110
0.11365607 0.053147011 1.1270001 4285953903
0.11590188 0.053194165 1.128 4286019696
0.11804684 0.053194165 1.128 4286019696
0.1201918 0.053194165 1.128 4285953905
0.1222283 0.053147011 1.1270001 4285888112
0.12437136 0.053147011 1.1270001 4285888112
0.12640215 0.053099852 1.126 4286019698
0.12888579 0.053241327 1.1290001 4286019698
0.1309166 0.053194165 1.128 4285953905
0.1331795 0.053241327 1.1290001 4286019699
0.1355661 0.053335641 1.131 4286085492
0.13844736 0.053618591 1.1370001 4286151544
0.14122777 0.053854376 1.1420001 4286283130
0.14415275 0.054137331 1.148 4285231212
0.14697309 0.054373115 1.153 4285099626
0.14916559 0.054373115 1.153 4285034092
0.15148936 0.054420277 1.154 4285231471
0.15381694 0.054467432 1.1550001 4285165678
0.15601324 0.054467432 1.1550001 4285297264
0.15820953 0.054467432 1.1550001 4285232243
0.16040583 0.054467432 1.1550001 4285232243
0.16246137 0.054420277 1.154 4285363057
0.16465576 0.054420277 1.154 4285428850
0.16685016 0.054420277 1.154 4285494643
0.16904455 0.054420277 1.154 4285494641
0.17123896 0.054420277 1.154 4285494641
0.17328306 0.054373115 1.153 4285494641
0.17532338 0.054325961 1.1520001 4285757813
0.17735989 0.054278802 1.151 4285626227
0.17954858 0.054278802 1.151 4285757813
0.18189517 0.054325961 1.1520001 4285692274
0.18424556 0.054373115 1.153 4285626481
0.18659976 0.054420277 1.154 4285758066
0.18879415 0.054420277 1.154 4282863174
0.19082305 0.054373115 1.153 4279112973
0.19301555 0.054373115 1.153 4279968282
0.19503874 0.054325961 1.1520001 4285494894
0.19705814 0.054278802 1.151 4285823860
0.19924684 0.054278802 1.151 4285626481
-0.37899593 0.056859981 1.159 4285823860
-0.37711707 0.05690904 1.1600001 4285823860
-0.37491128 0.05690904 1.1600001 4285823860
-0.37270546 0.05690904 1.1600001 4285889653
-0.37081906 0.056958098 1.161 4285889653
-0.36861134 0.056958098 1.161 4285823860
-0.36640364 0.056958098 1.161 4285692274
-0.36419591 0.056958098 1.161 4285692274
-0.36198822 0.056958098 1.161 4285758067
-0.35978052 0.056958098 1.161 4285823860
-0.35757279 0.056958098 1.161 4285758067
-0.3553651 0.056958098 1.161 4285692274
-0.35315737 0.056958098 1.161 4285626481
-0.35094967 0.056958098 1.161 4285560688
-0.34874195 0.056958098 1.161 4285560688
-0.34653425 0.056958098 1.161 4285560688
-0.34432653 0.056958098 1.161 4285691761
-0.34182414 0.05690904 1.1600001 4285691761
-0.3399111 0.056958098 1.161 4285691761
-0.33770341 0.056958098 1.161 4285625968
-0.33549568 0.056958098 1.161 4285625968
-0.3330009 0.05690904 1.1600001 4285560175
-0.33079511 0.05690904 1.1600001 4285494382
-0.32858929 0.05690904 1.1600001 4285428589
-0.32638347 0.05690904 1.1600001 4285297003
-0.32445714 0.056958098 1.161 4285231210
-0.32252699 0.05700716 1.1620001 4285362026
-0.32031739 0.05700716 1.1620001 4285296233
-0.31701276 0.056810919 1.1580001 4285295975
-0.31236401 0.056369387 1.149 4285690731
-0.30693966 0.055780672 1.1370001 4286019439
-0.30370536 0.055584431 1.133 4286019439
-0.3010186 0.05548631 1.131 4286018667
-0.29886791 0.05548631 1.131 4285952874
-0.29671726 0.05548631 1.131 4286149994
-0.29482704 0.055535372 1.1320001 4286215787
-0.29241592 0.05548631 1.131 4286346858
-0.29026526 0.05548631 1.131 4286149479
-0.28836936 0.055535372 1.1320001 4286083686
-0.28646964 0.055584431 1.133 4286215272
-0.2845661 0.055633493 1.1340001 4286149993
-0.28240976 0.055633493 1.1340001 4286084200
-0.28050053 0.055682551 1.1350001 4286018407
-0.27858746 0.055731609 1.136 4286018407
-0.2764273 0.055731609 1.136 4286084200
-0.27450857 0.055780672 1.1370001 4286018661
-0.2723465 0.055780672 1.1370001 4286018661
-0.27042204 0.05582973 1.138 4286018661
-0.2684938 0.055878788 1.1390001 4285952614
-0.26632792 0.055878788 1.1390001 4285952614
-0.26416206 0.055878788 1.1390001 4285952614
-0.26199618 0.055878788 1.1390001 4285952614
-0.2598303 0.055878788 1.1390001 4286084200
-0.25698575 0.055731609 1.136 4286084200
-0.25482559 0.055731609 1.136 4286084200
-0.2526654 0.055731609 1.136 4286149993
-0.25072575 0.055780672 1.1370001 4286149994
-0.24856368 0.055780672 1.1370001 4286084201
-0.24640161 0.055780672 1.1370001 4286084201
-0.24445435 0.05582973 1.138 4286084201
-0.24229038 0.05582973 1.138 4285952615
-0.2401264 0.05582973 1.138 4285952615
-0.23817153 0.055878788 1.1390001 4286018408
-0.23600565 0.055878788 1.1390001 4286018408
-0.23342918 0.055780672 1.1370001 4286018408
-0.23126709 0.055780672 1.1370001 4286018408
-0.22910503 0.055780672 1.1370001 4285952615
-0.22694296 0.055780672 1.1370001 4285886822
-0.22478089 0.055780672 1.1370001 4285952615
-0.2228146 0.05582973 1.138 4286018408
-0.22065064 0.05582973 1.138 4286018408
-0.21848667 0.05582973 1.138 4285952615
-0.21632269 0.05582973 1.138 4285886822
-0.21415871 0.05582973 1.138 4286018408
-0.21218102 0.055878788 1.1390001 4286018408
-0.21001515 0.055878788 1.1390001 4285886822
-0.20803176 0.05592785 1.1400001 4286018410
-0.20604457 0.055976909 1.141 4286018410
-0.20387489 0.055976909 1.141 4286084203
-0.2017052 0.055976909 1.141 4286084203
-0.1997104 0.056025967 1.1420001 4286084203
-0.19753882 0.056025967 1.1420001 4286084203
-0.19553831 0.056075029 1.143 4286018410
-0.19336483 0.056075029 1.143 4285952617
-0.19085681 0.055976909 1.141 4285886824
-0.18868713 0.055976909 1.141 4285952615
-0.18635398 0.05592785 1.1400001 4286018408
-0.18418621 0.05592785 1.1400001 4286084201
-0.18201843 0.05592785 1.1400001 4286149994
-0.18016617 0.056025967 1.1420001 4286149994
-0.17799459 0.056025967 1.1420001 4286018408
-0.17597698 0.056075029 1.143 4285886822
-0.17380349 0.056075029 1.143 4285952615
-0.17163001 0.056075029 1.143 4285952615
-0.16945653 0.056075029 1.143 4285952615
-0.16713668 0.056025967 1.1420001 4285952615
-0.16482066 0.055976909 1.141 4285952615
-0.16279353 0.056025967 1.1420001 4286018408
-0.16062194 0.056025967 1.1420001 4285952615
-0.15845037 0.056025967 1.1420001 4285821029
-0.15627879 0.056025967 1.1420001 4285886824
-0.15424216 0.056075029 1.143 4285886824
-0.15206867 0.056075029 1.143 4285886824
-0.14976405 0.056025967 1.1420001 4285886824
-0.14733398 0.05592785 1.1400001 4285886824
-0.1451662 0.05592785 1.1400001 4285952617
-0.14312387 0.055976909 1.141 4285952617
-0.1409542 0.055976909 1.141 4285952617
-0.13890614 0.056025967 1.1420001 4285821288
-0.13673456 0.056025967 1.1420001 4285821288
-0.13456298 0.056025967 1.1420001 4285821288
-0.13239139 0.056025967 1.1420001 4285821288
-0.13021982 0.056025967 1.1420001 4285821288
-0.12804824 0.056025967 1.1420001 4285821288
-0.12587665 0.056025967 1.1420001 4285821288
-0.12370507 0.056025967 1.1420001 4285887081
-0.12142707 0.055976909 1.141 4285952874
-0.1192574 0.055976909 1.141 4286018667
-0.11719033 0.056025967 1.1420001 4286018921
-0.11501876 0.056025967 1.1420001 4285953128
-0.11274835 0.055976909 1.141 4285821542
-0.11048177 0.05592785 1.1400001 4285755749
-0.10831399 0.05592785 1.1400001 4285755749
-0.1060531 0.055878788 1.1390001 4285755749
-0.10397843 0.05592785 1.1400001 4285689702
-0.10181066 0.05592785 1.1400001 4285755495
-0.09964288 0.05592785 1.1400001 4285821542
-0.097560607 0.055976909 1.141 4285821542
-0.095390923 0.055976909 1.141 4285821541
-0.093139544 0.05592785 1.1400001 4285821541
-0.090971768 0.05592785 1.1400001 4285755748
-0.088803992 0.05592785 1.1400001 4285689955
-0.086636215 0.05592785 1.1400001 4285887334
-0.084542528 0.055976909 1.141 4285821541
-0.08244504 0.056025967 1.1420001 4285821541
-0.080273464 0.056025967 1.1420001 4285821541
-0.078033492 0.055976909 1.141 4285821542
-0.075930297 0.056025967 1.1420001 4285887335
-0.073694132 0.055976909 1.141 4285887335
-0.071524456 0.055976909 1.141 4285887335
-0.069293991 0.05592785 1.1400001 4285624677
-0.067067333 0.055878788 1.1390001 4285624677
-0.064901456 0.055878788 1.1390001 4285624677
-0.062680505 0.05582973 1.138 4285624677
-0.060516529 0.05582973 1.138 4285690472
-0.058352556 0.05582973 1.138 4285690472
-0.056139201 0.055780672 1.1370001 4285690472
-0.053977128 0.055780672 1.1370001 4285624679
-0.051815055 0.055780672 1.1370001 4285624681
-0.049609315 0.055731609 1.136 4285624681
-0.047449142 0.055731609 1.136 4285690474
-0.045328837 0.055780672 1.1370001 4285690474
-0.043166764 0.055780672 1.1370001 4285624427
-0.04096863 0.055731609 1.136 4285624427
-0.038808458 0.055731609 1.136 4285558634
-0.036616027 0.055682551 1.1350001 4285558634
-0.034457758 0.055682551 1.1350001 4285755497
-0.032327946 0.055731609 1.136 4285755495
-0.030141216 0.055682551 1.1350001 4285755495
-0.028007602 0.055731609 1.136 4285755495
-0.025870183 0.055780672 1.1370001 4285755495
-0.023708111 0.055780672 1.1370001 4285755495
-0.021527087 0.055731609 1.136 4285821290
-0.019366916 0.055731609 1.136 4285821290
-0.017221892 0.055780672 1.1370001 4285821290
-0.015059819 0.055780672 1.1370001 4285755497
-0.012897747 0.055780672 1.1370001 4285755497
-0.010735673 0.055780672 1.1370001 4285755497
-0.008581141 0.05582973 1.138 4285821290
-0.0064171669 0.05582973 1.138 4285821290
-0.0042531923 0.05582973 1.138 4285821290
-0.002089218 0.05582973 1.138 4285821290
7.4690746e-05 0.055780672 1.1370001 4285690472
0.0022367637 0.055780672 1.1370001 4285690472
0.0043949676 0.055731609 1.136 4285756265
0.0065551391 0.055731609 1.136 4285690472
0.0087153101 0.055731609 1.136 4285690472
0.010885055 0.055780672 1.1370001 4285624679
0.013047128 0.055780672 1.1370001 4285690472
0.015209201 0.055780672 1.1370001 4285756265
0.017371273 0.055780672 1.1370001 4285822058
0.019516166 0.055731609 1.136 4285822058
0.021676337 0.055731609 1.136 4285756265
0.02383651 0.055731609 1.136 4285690472
0.025973797 0.055682551 1.1350001 4285690472
0.028132066 0.055682551 1.1350001 4285690472
0.030290337 0.055682551 1.1350001 4285756265
0.032477196 0.055731609 1.136 4285887851
0.034606874 0.055682551 1.1350001 4285953392
0.036765143 0.055682551 1.1350001 4285887599
0.038923413 0.055682551 1.1350001 4285887853
0.041081682 0.055682551 1.1350001 4285822060
0.043239955 0.055682551 1.1350001 4285822060
0.045398224 0.055682551 1.1350001 4285822060
0.047514595 0.055633493 1.1340001 4285822058
0.049670964 0.055633493 1.1340001 4285887851
0.051873032 0.055682551 1.1350001 4285756265
0.054078907 0.055731609 1.136 4285822058
0.056189571 0.055682551 1.1350001 4285887853
0.058296435 0.055633493 1.1340001 4285953646
0.060399495 0.055584431 1.133 4285953646
0.062553957 0.055584431 1.133 4285887853
0.06465131 0.055535372 1.1320001 4285821806
0.06680388 0.055535372 1.1320001 4285821806
0.068956442 0.055535372 1.1320001 4285822060
0.071171828 0.055584431 1.133 4285822060
0.073391013 0.055633493 1.1340001 4285887853
0.075614005 0.055682551 1.1350001 4286019439
0.077703752 0.055633493 1.1340001 4286019439
0.079860121 0.055633493 1.1340001 4286019439
0.082016483 0.055633493 1.1340001 4286019439
0.08409863 0.055584431 1.133 4286019439
0.086253092 0.055584431 1.133 4285822058
0.088407561 0.055584431 1.133 4285887851
0.090562023 0.055584431 1.133 4285887851
0.092634656 0.055535372 1.1320001 4285953644
0.094703488 0.05548631 1.131 4286019437
0.09685415 0.05548631 1.131 4286085230
0.099004813 0.05548631 1.131 4286085230
0.10115548 0.05548631 1.131 4286151023
0.10330614 0.05548631 1.131 4286085230
0.10545681 0.05548631 1.131 4286019437
0.10751233 0.055437252 1.13 4286019437
0.10956405 0.055388194 1.1290001 4286019437
0.11180985 0.055437252 1.13 4286019437
0.11395861 0.055437252 1.13 4286085230
0.11621013 0.05548631 1.131 4286085232
0.11836079 0.05548631 1.131 4286151025
0.12051145 0.05548631 1.131 4285953392
0.12255366 0.055437252 1.13 4285953392
0.12470243 0.055437252 1.13 4286019185
0.12673892 0.055388194 1.1290001 4286150771
0.12888579 0.055388194 1.1290001 4286150772
0.1309166 0.055339135 1.128 4286084979
0.1331795 0.055388194 1.1290001 4286084979
0.1355661 0.05548631 1.131 4286085492
0.13844736 0.055780672 1.1370001 4285822579
0.14122777 0.056025967 1.1420001 4286348925
0.14452946 0.056467503 1.151 4285033579
0.14722803 0.05666374 1.1550001 4285033579
0.14942433 0.05666374 1.1550001 4284902508
0.15188318 0.056761861 1.1570001 4285034094
0.15421647 0.056810919 1.1580001 4284968301
0.15641847 0.056810919 1.1580001 4285297266
0.15862048 0.056810919 1.1580001 4285166450
0.16082248 0.056810919 1.1580001 4285232243
0.1628837 0.056761861 1.1570001 4285428852
0.16508381 0.056761861 1.1570001 4285428850
0.16742851 0.056810919 1.1580001 4285428850
0.16948402 0.056761861 1.1570001 4285428850
0.17153573 0.056712799 1.156 4285428850
0.17373393 0.056712799 1.156 4285428850
0.17577994 0.05666374 1.1550001 4285428848
0.17782216 0.056614682 1.154 4285428848
0.18001656 0.056614682 1.154 4285626481
0.18236884 0.05666374 1.1550001 4285363309
0.18488474 0.056761861 1.1570001 4285560688
0.18692316 0.056712799 1.156 4286021238
0.18928495 0.056761861 1.1570001 4281942072
0.19131956 0.056712799 1.156 4279179020
0.19335034 0.05666374 1.1550001 4280626212
0.19537735 0.056614682 1.154 4285955445
0.19757175 0.056614682 1.154 4285626481
0.19976616 0.056614682 1.154 4285692274
-0.3799769 0.059216779 1.1620001 4285823860
-0.37809241 0.059267741 1.1630001 4285823860
-0.37555769 0.059216779 1.1620001 4285889653
-0.37366939 0.059267741 1.1630001 4285889653
-0.37145787 0.059267741 1.1630001 4286021239
-0.36924636 0.059267741 1.1630001 4285889653
-0.36703482 0.059267741 1.1630001 4285758067
-0.36482331 0.059267741 1.1630001 4285692274
-0.36354718 0.059420623 1.166 4285758067
-0.36132994 0.059420623 1.166 4285823860
-0.35942072 0.059471581 1.1670001 4285889653
-0.35689551 0.059420623 1.166 4285823860
-0.3546783 0.059420623 1.166 4285758067
-0.35246107 0.059420623 1.166 4285626481
-0.35024387 0.059420623 1.166 4285626481
-0.34832513 0.059471581 1.1670001 4285692274
-0.34580943 0.059420623 1.166 4285757554
-0.3435922 0.059420623 1.166 4285757554
-0.34049669 0.059267741 1.1630001 4285691761
-0.33799428 0.059216779 1.1620001 4285757554
-0.33578467 0.059216779 1.1620001 4285625968
-0.33357507 0.059216779 1.1620001 4285560175
-0.33136544 0.059216779 1.1620001 4285494382
-0.32915583 0.059216779 1.1620001 4285362796
-0.32694623 0.059216779 1.1620001 4285297003
-0.32529551 0.059318699 1.164 4285297003
-0.32308212 0.059318699 1.164 4285362026
-0.3208687 0.059318699 1.164 4285362281
-0.31783402 0.059165817 1.161 4285230182
-0.31453887 0.058961973 1.1570001 4285559145
-0.31017914 0.058554284 1.149 4285953646
-0.30450952 0.05789179 1.136 4285953644
-0.30155089 0.057738908 1.133 4286018667
-0.29939643 0.057738908 1.133 4286018921
-0.29750434 0.05778987 1.1340001 4286149994
-0.29534796 0.05778987 1.1340001 4286215786
-0.29319158 0.05778987 1.1340001 4286281065
-0.29103521 0.05778987 1.1340001 4286083686
-0.28887886 0.05778987 1.1340001 4286017893
-0.28697532 0.057840828 1.1350001 4286149479
-0.28506798 0.05789179 1.136 4286018407
-0.28290781 0.05789179 1.136 4286018407
-0.28099477 0.057942752 1.1370001 4285952614
-0.2788327 0.057942752 1.1370001 4286018407
-0.27715731 0.058044672 1.1390001 4286084454
-0.27499142 0.058044672 1.1390001 4286018661
-0.27306509 0.058095634 1.1400001 4286018661
-0.27089733 0.058095634 1.1400001 4285952868
-0.26896524 0.058146596 1.141 4285952614
-0.26679558 0.058146596 1.141 4285952614
-0.26462588 0.058146596 1.141 4286018407
-0.26245621 0.058146596 1.141 4286018407
-0.26028654 0.058146596 1.141 4286084200
-0.25811684 0.058146596 1.141 4286018407
-0.25549856 0.058044672 1.1390001 4286018407
-0.25333267 0.058044672 1.1390001 4286084200
-0.25138733 0.058095634 1.1400001 4286084201
-0.24921952 0.058095634 1.1400001 4286018408
-0.24705175 0.058095634 1.1400001 4286084201
-0.24509878 0.058146596 1.141 4286149994
-0.24292912 0.058146596 1.141 4285952615
-0.24075943 0.058146596 1.141 4285952615
-0.23879886 0.058197554 1.1420001 4286018408
-0.23642008 0.058146596 1.141 4286018408
-0.23404509 0.058095634 1.1400001 4286018408
-0.23187731 0.058095634 1.1400001 4286018408
-0.22970954 0.058095634 1.1400001 4286018408
-0.22754176 0.058095634 1.1400001 4285952615
-0.22537397 0.058095634 1.1400001 4286018408
-0.22320619 0.058095634 1.1400001 4286084201
-0.22103842 0.058095634 1.1400001 4286084201
-0.21887064 0.058095634 1.1400001 4286018408
-0.21689296 0.058146596 1.141 4286018408
-0.21472329 0.058146596 1.141 4286084201
-0.21273988 0.058197554 1.1420001 4286084201
-0.2107527 0.05824852 1.143 4286018408
-0.20857921 0.05824852 1.143 4286084203
-0.20640573 0.05824852 1.143 4286084203
-0.20423225 0.05824852 1.143 4286149996
-0.20205876 0.05824852 1.143 4286149996
-0.20006014 0.058299478 1.1440001 4286149996
-0.19805776 0.058350436 1.1450001 4286149996
-0.19588046 0.058350436 1.1450001 4286084203
-0.19370317 0.058350436 1.1450001 4286084203
-0.19135861 0.058299478 1.1440001 4286084201
-0.18885249 0.058197554 1.1420001 4286018408
-0.18651745 0.058146596 1.141 4285952615
-0.18434778 0.058146596 1.141 4285952615
-0.18217809 0.058146596 1.141 4285952615
-0.18032394 0.05824852 1.143 4286018408
-0.17815046 0.05824852 1.143 4286084201
-0.17613094 0.058299478 1.1440001 4286084201
-0.17410761 0.058350436 1.1450001 4286018408
-0.17208049 0.058401402 1.146 4286018408
-0.16975304 0.058350436 1.1450001 4286018408
-0.16742939 0.058299478 1.1440001 4286018408
-0.16525401 0.058299478 1.1440001 4286084201
-0.16307862 0.058299478 1.1440001 4286215787
-0.16090325 0.058299478 1.1440001 4286149994
-0.15886661 0.058350436 1.1450001 4286018408
-0.15682618 0.058401402 1.146 4286018410
-0.15464699 0.058401402 1.146 4285952617
-0.15233476 0.058350436 1.1450001 4285886824
-0.15002632 0.058299478 1.1440001 4285821031
-0.14746323 0.058146596 1.141 4285821031
-0.14529355 0.058146596 1.141 4285886824
-0.14312387 0.058146596 1.141 4285952617
-0.14120126 0.05824852 1.143 4286018410
-0.13914941 0.058299478 1.1440001 4285952874
-0.13697402 0.058299478 1.1440001 4285887081
-0.13479863 0.058299478 1.1440001 4285887081
-0.13262326 0.058299478 1.1440001 4285887081
-0.13044786 0.058299478 1.1440001 4285821288
-0.12827249 0.058299478 1.1440001 4285887081
-0.12620734 0.058350436 1.1450001 4285887081
-0.12392173 0.058299478 1.1440001 4285887081
-0.12185276 0.058350436 1.1450001 4285821288
-0.11967548 0.058350436 1.1450001 4285952874
-0.11739557 0.058299478 1.1440001 4286018921
-0.11532091 0.058350436 1.1450001 4286018921
-0.11314362 0.058350436 1.1450001 4285887335
-0.11086942 0.058299478 1.1440001 4285755749
-0.10869404 0.058299478 1.1440001 4285821542
-0.10651866 0.058299478 1.1440001 4285821542
-0.10416085 0.058197554 1.1420001 4285689702
-0.10198927 0.058197554 1.1420001 4285755495
-0.099817686 0.058197554 1.1420001 4285821542
-0.09764611 0.058197554 1.1420001 4285887335
-0.095558137 0.05824852 1.143 4285887334
-0.093302943 0.058197554 1.1420001 4285821541
-0.091131367 0.058197554 1.1420001 4285755748
-0.088803992 0.058095634 1.1400001 4285689955
-0.086636215 0.058095634 1.1400001 4285887334
-0.084542528 0.058146596 1.141 4285821541
-0.08244504 0.058197554 1.1420001 4285755748
-0.080273464 0.058197554 1.1420001 4285755748
-0.078170277 0.05824852 1.143 4285821542
-0.075996794 0.05824852 1.143 4285887335
-0.07382331 0.05824852 1.143 4285887335
-0.071649835 0.05824852 1.143 4285887335
-0.069476351 0.05824852 1.143 4285624677
-0.067302868 0.05824852 1.143 4285558884
-0.065129384 0.05824852 1.143 4285624677
-0.062955901 0.05824852 1.143 4285624677
-0.060729239 0.058197554 1.1420001 4285690472
-0.058557659 0.058197554 1.1420001 4285756265
-0.056336705 0.058146596 1.141 4285690472
-0.054167025 0.058146596 1.141 4285690472
-0.051997345 0.058146596 1.141 4285624681
-0.049783994 0.058095634 1.1400001 4285624681
-0.047616217 0.058095634 1.1400001 4285690474
-0.045488309 0.058146596 1.141 4285690474
-0.043318629 0.058146596 1.141 4285690220
-0.041112885 0.058095634 1.1400001 4285624427
-0.038910944 0.058044672 1.1390001 4285624427
-0.036745071 0.058044672 1.1390001 4285624681
-0.034548834 0.057993714 1.138 4285755497
-0.032413319 0.058044672 1.1390001 4285821288
-0.030247442 0.058044672 1.1390001 4285821288
-0.02810622 0.058095634 1.1400001 4285821288
-0.025938442 0.058095634 1.1400001 4285755495
-0.023770664 0.058095634 1.1400001 4285755495
-0.021583937 0.058044672 1.1390001 4285821290
-0.019418063 0.058044672 1.1390001 4285887083
-0.017252186 0.058044672 1.1390001 4285821290
-0.015099555 0.058095634 1.1400001 4285755497
-0.012931777 0.058095634 1.1400001 4285689704
-0.010764 0.058095634 1.1400001 4285689704
-0.0085962219 0.058095634 1.1400001 4285755497
-0.0064284448 0.058095634 1.1400001 4285821290
-0.0042606671 0.058095634 1.1400001 4285821290
-0.0020928897 0.058095634 1.1400001 4285821290
7.4887823e-05 0.058095634 1.1400001 4285756265
0.0022406981 0.058044672 1.1390001 4285822058
0.0044065737 0.058044672 1.1390001 4285756265
0.0065666796 0.057993714 1.138 4285756265
0.0087306546 0.057993714 1.138 4285624679
0.010904202 0.058044672 1.1390001 4285624679
0.013058604 0.057993714 1.138 4285624679
0.015222578 0.057993714 1.138 4285690472
0.017386552 0.057993714 1.138 4285887851
0.019550527 0.057993714 1.138 4285822058
0.021714501 0.057993714 1.138 4285756265
0.023878476 0.057993714 1.138 4285690472
0.02604245 0.057993714 1.138 4285624679
0.028206425 0.057993714 1.138 4285690472
0.030370399 0.057993714 1.138 4285822058
0.032534372 0.057993714 1.138 4285887851
0.034698345 0.057993714 1.138 4285821806
0.036894713 0.058044672 1.1390001 4285821806
0.039060589 0.058044672 1.1390001 4285756267
0.041226465 0.058044672 1.1390001 4285690474
0.04343044 0.058095634 1.1400001 4285690474
0.045558218 0.058044672 1.1390001 4285756267
0.047682192 0.057993714 1.138 4285822058
0.049889971 0.058044672 1.1390001 4285822058
0.052055847 0.058044672 1.1390001 4285822058
0.054221723 0.058044672 1.1390001 4285822058
0.056387596 0.058044672 1.1390001 4285822060
0.058450658 0.057942752 1.1370001 4285887853
0.060559422 0.05789179 1.136 4285887853
0.062664382 0.057840828 1.1350001 4285887853
0.064765543 0.05778987 1.1340001 4285821806
0.066980921 0.057840828 1.1350001 4285756013
0.06913919 0.057840828 1.1350001 4285756267
0.071171828 0.057738908 1.133 4285822060
0.073391013 0.05778987 1.1340001 4285822060
0.075614005 0.057840828 1.1350001 4285887853
0.077703752 0.05778987 1.1340001 4285953646
0.079860121 0.05778987 1.1340001 4286019439
0.082016483 0.05778987 1.1340001 4286019439
0.08409863 0.057738908 1.133 4286019439
0.086253092 0.057738908 1.133 4285953644
0.088407561 0.057738908 1.133 4285953644
0.090562023 0.057738908 1.133 4285953644
0.092716493 0.057738908 1.133 4285953644
0.094954692 0.05778987 1.1340001 4286019437
0.097025424 0.057738908 1.133 4286085230
0.099179894 0.057738908 1.133 4286085230
0.10133436 0.057738908 1.133 4286151023
0.10348883 0.057738908 1.133 4286085230
0.10564329 0.057738908 1.133 4286085230
0.10770261 0.057687946 1.1320001 4286019437
0.10985518 0.057687946 1.1320001 4286019437
0.11200774 0.057687946 1.1320001 4286019437
0.11416031 0.057687946 1.1320001 4286085230
0.11641563 0.057738908 1.133 4286151025
0.11857009 0.057738908 1.133 4286151025
0.12072456 0.057738908 1.133 4285953392
0.12277057 0.057687946 1.1320001 4285887599
0.12492314 0.057687946 1.1320001 4286019185
0.12696344 0.057636984 1.131 4286150771
0.12911411 0.057636984 1.131 4286216565
0.13126476 0.057636984 1.131 4286150772
0.13341543 0.057636984 1.131 4286084979
0.13592568 0.05778987 1.1340001 4286085238
0.13881265 0.058095634 1.1400001 4286414205
0.1414751 0.058299478 1.1440001 4286941062
0.14465503 0.058707166 1.1520001 4285165165
0.14748298 0.058961973 1.1570001 4285099372
0.14968307 0.058961973 1.1570001 4284902508
0.15201446 0.059012935 1.1580001 4285099887
0.15448281 0.059114859 1.1600001 4285034094
0.15668862 0.059114859 1.1600001 4285494645
0.15889442 0.059114859 1.1600001 4285232243
0.16110024 0.059114859 1.1600001 4285298036
0.16316527 0.059063897 1.159 4285494645
0.16551185 0.059114859 1.1600001 4285560438
0.16757308 0.059063897 1.159 4285560436
0.16977699 0.059063897 1.159 4285560436
0.17183252 0.059012935 1.1580001 4285560436
0.17388423 0.058961973 1.1570001 4285626229
0.17608432 0.058961973 1.1570001 4285494641
0.17828444 0.058961973 1.1570001 4285494641
0.18048453 0.058961973 1.1570001 4285758067
0.18268465 0.058961973 1.1570001 4285429102
0.18520434 0.059063897 1.159 4285692273
0.18724656 0.059012935 1.1580001 4286152824
0.18944857 0.059012935 1.1580001 4280955431
0.19148506 0.058961973 1.1570001 4279310606
0.19368516 0.058961973 1.1570001 4281744693
0.19571596 0.058911011 1.156 4285889652
0.19774295 0.058860052 1.1550001 4285494895
-0.37874258 0.061584987 1.1650001 4285758067
-0.37652728 0.061584987 1.1650001 4285823860
-0.37463325 0.061637849 1.166 4285823860
-0.37241605 0.061637849 1.166 4285955446
-0.37019882 0.061637849 1.166 4285889653
-0.36798161 0.061637849 1.166 4285758067
-0.36576438 0.061637849 1.166 4285758067
-0.36354718 0.061637849 1.166 4285823860
-0.36132994 0.061637849 1.166 4285823860
-0.35942072 0.06169071 1.1670001 4285823860
-0.35689551 0.061637849 1.166 4285758067
-0.3546783 0.061637849 1.166 4285758067
-0.35246107 0.061637849 1.166 4285626481
-0.35024387 0.061637849 1.166 4285626481
-0.34832513 0.06169071 1.1670001 4285692274
-0.34580943 0.061637849 1.166 4285692274
-0.3435922 0.061637849 1.166 4285626481
-0.34108222 0.061584987 1.1650001 4285625968
-0.33886689 0.061584987 1.1650001 4285691761
-0.33694056 0.061637849 1.166 4285560175
-0.33472332 0.061637849 1.166 4285560175
-0.33250612 0.061637849 1.166 4285494382
-0.33028889 0.061637849 1.166 4285494382
-0.32807168 0.061637849 1.166 4285428589
-0.32585445 0.061637849 1.166 4285297003
-0.3239148 0.06169071 1.1670001 4285362026
-0.32169569 0.06169071 1.1670001 4285362281
-0.31865528 0.061532121 1.164 4285164902
-0.31453887 0.061162084 1.1570001 4285428072
-0.30774954 0.060263421 1.1400001 4285756778
-0.30558175 0.060263421 1.1400001 4285822058
-0.30234936 0.06005197 1.136 4285887081
-0.30018917 0.06005197 1.136 4285887335
-0.29802901 0.06005197 1.136 4286018408
-0.29586884 0.06005197 1.136 4286084200
-0.29370865 0.06005197 1.136 4286215272
-0.29154849 0.06005197 1.136 4286017891
-0.28964308 0.060104832 1.1370001 4285952098
-0.28773385 0.060157694 1.138 4286017891
-0.28582081 0.060210556 1.1390001 4285886821
-0.28365493 0.060210556 1.1390001 4285886821
-0.28148907 0.060210556 1.1390001 4285886821
-0.27956843 0.060263421 1.1400001 4285952614
-0.27764395 0.060316283 1.141 4285952868
-0.27547428 0.060316283 1.141 4286018661
-0.27354413 0.060369145 1.1420001 4286018661
-0.27137256 0.060369145 1.1420001 4286018661
-0.26920098 0.060369145 1.1420001 4286018661
-0.2670294 0.060369145 1.1420001 4286018661
-0.26508975 0.060422011 1.143 4286018407
-0.26291627 0.060422011 1.143 4286018407
-0.26097092 0.060474869 1.1440001 4285952614
-0.25811684 0.060316283 1.141 4285886821
-0.25617149 0.060369145 1.1420001 4285886821
-0.25399992 0.060369145 1.1420001 4286018407
-0.25182834 0.060369145 1.1420001 4286018408
-0.24965675 0.060369145 1.1420001 4285952615
-0.2477019 0.060422011 1.143 4286018408
-0.24552841 0.060422011 1.143 4286149994
-0.24356782 0.060474869 1.1440001 4286018408
-0.24118145 0.060422011 1.143 4286018408
-0.23921706 0.060474869 1.1440001 4286018408
-0.23683448 0.060422011 1.143 4286018408
-0.23445569 0.060369145 1.1420001 4286018408
-0.23228411 0.060369145 1.1420001 4286018408
-0.23011252 0.060369145 1.1420001 4286018408
-0.22794095 0.060369145 1.1420001 4286018408
-0.22576937 0.060369145 1.1420001 4285952615
-0.22379358 0.060422011 1.143 4286084201
-0.2216201 0.060422011 1.143 4286084201
-0.2200226 0.060580596 1.146 4286018408
-0.21746323 0.060474869 1.1440001 4286018408
-0.21528783 0.060474869 1.1440001 4286084201
-0.21329875 0.060527731 1.1450001 4286084201
-0.21130586 0.060580596 1.146 4286018408
-0.20912667 0.060580596 1.146 4286084203
-0.20694748 0.060580596 1.146 4286084203
-0.2047683 0.060580596 1.146 4286084203
-0.20258911 0.060580596 1.146 4286149996
-0.20040992 0.060580596 1.146 4286149996
-0.1984037 0.060633458 1.1470001 4286149996
-0.19622262 0.060633458 1.1470001 4286149994
-0.19404152 0.060633458 1.1470001 4286149994
-0.19169317 0.060580596 1.146 4286149994
-0.18934861 0.060527731 1.1450001 4286084201
-0.18700784 0.060474869 1.1440001 4285952614
-0.18467091 0.060422011 1.143 4285952614
-0.18249743 0.060422011 1.143 4285952614
-0.18079723 0.060580596 1.146 4286018407
-0.17877391 0.060633458 1.1470001 4286084200
-0.17674679 0.060686324 1.148 4286084200
-0.17441173 0.060633458 1.1470001 4286084201
-0.17223063 0.060633458 1.1470001 4286149994
-0.17004955 0.060633458 1.1470001 4286084201
-0.16772212 0.060580596 1.146 4286018408
-0.16554293 0.060580596 1.146 4286084201
-0.16336374 0.060580596 1.146 4286215787
-0.1613252 0.060633458 1.1470001 4286149994
-0.15928286 0.060686324 1.148 4285952615
-0.15723671 0.060739186 1.149 4286149996
-0.15505181 0.060739186 1.149 4286018410
-0.15273389 0.060686324 1.148 4285886824
-0.15028863 0.060580596 1.146 4285821031
-0.14785095 0.060474869 1.1440001 4285821031
