# .PCD v0.7 - Point Cloud Data file format
VERSION 0.7
FIELDS x y z intensity
SIZE 4 4 4 4
TYPE F F F F
COUNT 1 1 1 1
WIDTH 1043
HEIGHT 1
VIEWPOINT 0 0 0 1 0 0 0
POINTS 1043
DATA ascii
-0.077332191 -0.065359637 1.005 0.090184681
-0.069041409 -0.064711772 1.0048333 0.090184681
-0.062003054 -0.064362735 1.0043751 0.090184681
-0.054413158 -0.065375894 1.0052501 0.090184681
-0.093433507 -0.062288448 1.0120834 0.090184681
-0.085237689 -0.06259802 1.011889 0.090184681
-0.07780005 -0.061906647 1.0110835 0.090184681
-0.070510134 -0.061536271 1.0113001 0.090184681
-0.054369211 -0.061771736 1.0113078 0.090184681
-0.062483404 -0.061009903 1.012125 0.090184681
-0.096532471 -0.060279038 1.016 0.090184681
-0.086872555 -0.060279038 1.016 0.090184681
-0.094026648 -0.057619415 1.0202502 0.090184681
-0.085795023 -0.056496289 1.0204166 0.090184681
-0.078686677 -0.056317728 1.0196923 0.090184681
-0.071127161 -0.056879573 1.0174 0.090184681
-0.069370069 -0.058251332 1.0143334 0.090184681
-0.062090497 -0.055836394 1.0190771 0.090184681
-0.059765883 -0.058289617 1.0150001 0.090184681
-0.056870759 -0.058289617 1.0150001 0.090184681
-0.053368971 -0.055518158 1.0195626 0.090184681
-0.094663769 -0.053125322 1.0271667 0.090184681
-0.08749488 -0.052341245 1.026125 0.090184681
-0.069792606 -0.053027928 1.0252501 0.090184681
-0.062285896 -0.052165929 1.0247144 0.090184681
-0.077571966 -0.052005716 1.0264444 0.090184681
-0.053532865 -0.051067479 1.0250001 0.090184681
-0.093290523 -0.048664715 1.0308751 0.090184681
-0.085070416 -0.049322035 1.02925 0.090184681
-0.077447489 -0.0485246 1.030143 0.090184681
-0.069077313 -0.048009425 1.0291113 0.090184681
-0.061546512 -0.048313014 1.0286251 0.090184681
-0.054133117 -0.047742788 1.029 0.090184681
-0.093674272 -0.044969507 1.0342222 0.090184681
-0.085551925 -0.04566136 1.0350834 0.090184681
-0.0775714 -0.045007661 1.0351111 0.090184681
-0.070270643 -0.04456576 1.0357143 0.090184681
-0.06192831 -0.044675134 1.0350001 0.090184681
-0.053349089 -0.044305455 1.034 0.090184681
-0.093574658 -0.041795637 1.0367501 0.090184681
-0.085792921 -0.041846033 1.0380001 0.090184681
-0.077934213 -0.041866191 1.0385001 0.090184681
-0.071012706 -0.041859474 1.0383334 0.090184681
-0.070522979 -0.038849689 1.0443636 0.090184681
-0.062659182 -0.041270029 1.0448573 0.090184681
-0.054478657 -0.039074313 1.0431252 0.090184681
-0.052225657 -0.040848568 1.03775 0.090184681
-0.14156486 -0.038396742 1.0433844 0.089626759
-0.14990024 -0.03813605 1.0445833 0.089626759
-0.11059754 -0.038379841 1.0511818 0.089626759
-0.12626326 -0.037204843 1.04625 0.089626759
-0.11712713 -0.037471194 1.0497143 0.089626759
-0.10565208 -0.037302632 1.049 0.089626759
-0.15045233 -0.03178551 1.0504286 0.089626759
-0.14293538 -0.031862065 1.0505834 0.089626759
-0.13929649 -0.034245104 1.0470001 0.089626759
-0.13406259 -0.034179688 1.0450001 0.089626759
-0.12934183 -0.034245104 1.0470001 0.089626759
-0.12661193 -0.031859338 1.0505 0.089626759
-0.11820703 -0.031785917 1.0504285 0.089626759
-0.10994345 -0.030346135 1.0500002 0.089626759
-0.11042798 -0.032917809 1.0470001 0.089626759
-0.13424718 -0.031036278 1.0507779 0.089626759
-0.14953008 -0.028515311 1.056 0.089626759
-0.14120694 -0.028524311 1.0563334 0.089626759
-0.13451283 -0.028524311 1.0563333 0.089626759
-0.12442952 -0.028515311 1.056 0.089626759
-0.1194094 -0.028515311 1.056 0.089626759
-0.14924942 -0.025481829 1.061143 0.089626759
-0.1424672 -0.024800759 1.0611818 0.089626759
-0.13383216 -0.025299557 1.0615556 0.089626759
-0.12596726 -0.024601383 1.0605 0.089626759
-0.11798551 -0.025628831 1.0612501 0.089626759
-0.10993026 -0.025269298 1.0603335 0.089626759
-0.15098934 -0.022398252 1.0652858 0.089626759
-0.14215106 -0.021070076 1.0654 0.089626759
-0.13498262 -0.021516468 1.0645715 0.089626759
-0.1185409 -0.021694023 1.06625 0.089626759
-0.11023075 -0.021538634 1.0657142 0.089626759
-0.12659 -0.020672215 1.06575 0.089626759
-0.14940703 -0.017693413 1.0695001 0.089626759
-0.1416253 -0.017537851 1.0688572 0.089626759
-0.13402778 -0.017676633 1.0685 0.089626759
-0.12631713 -0.018130869 1.0695715 0.089626759
-0.11079253 -0.018715601 1.0697501 0.089626759
-0.14185184 -0.013681113 1.0738751 0.089626759
-0.1337754 -0.013690431 1.074625 0.089626759
-0.14236359 -0.01065791 1.0777501 0.089626759
-0.1180146 -0.018731637 1.0706668 0.090011127
-0.10277643 -0.018737469 1.0710001 0.090011127
-0.1250973 -0.014292866 1.0737998 0.090011127
-0.11737862 -0.014705612 1.0741667 0.090011127
-0.10935125 -0.01472311 1.0755835 0.090011127
-0.1012189 -0.014731294 1.0761001 0.090011127
-0.10466694 -0.012733853 1.08 0.090011127
-0.13416359 -0.01065791 1.07775 0.090011127
-0.12585242 -0.010648022 1.0767502 0.090011127
-0.11771467 -0.010652967 1.07725 0.090011127
-0.11018264 -0.0096844565 1.08375 0.090011127
-0.10199838 -0.0073827324 1.0835385 0.090011127
-0.099440575 -0.010670273 1.079 0.090011127
-0.14195608 -0.0067801564 1.0839092 0.090011127
-0.1339111 -0.0065931459 1.0840001 0.090011127
-0.12638424 -0.0067788777 1.0837274 0.090011127
-0.11915779 -0.0073627396 1.0833751 0.090011127
-0.11630701 -0.0052501205 1.0896667 0.090011127
-0.10980016 -0.005597664 1.0901667 0.090011127
-0.14061348 -0.0045525613 1.0880001 0.090011127
-0.10544225 -0.0045525613 1.0880001 0.090011127
-0.13317865 -0.00041223268 1.0918183 0.090011127
-0.1263456 -6.6707551e-05 1.0928334 0.090011127
-0.11740192 4.7154543e-05 1.0923333 0.090011127
-0.11086592 0.00052645168 1.0895455 0.090011127
-0.10346745 0.00041596228 1.0912001 0.090011127
-0.10215078 -0.0024790918 1.0860001 0.090011127
-0.10945414 0.00010247398 1.08675 0.090011127
-0.12396052 0.0027092276 1.0962501 0.090011127
-0.1198189 0.002710083 1.0965 0.090011127
-0.10007069 0.0027114134 1.0971667 0.090011127
-0.10893226 0.0071649272 1.09975 0.090011127
-0.10256098 0.0074366592 1.1015 0.090011127
-0.10082056 0.010615076 1.1053751 0.090011127
-0.14223379 -0.0014532977 1.0925001 0.089762032
-0.14917889 0.0027126968 1.0977501 0.089762032
-0.1419059 0.0027133145 1.098 0.089762032
-0.13591187 0.0029191412 1.0968001 0.089762032
-0.14973547 0.0079625528 1.1018333 0.089762032
-0.14134233 0.0079611586 1.10175 0.089762032
-0.1335008 0.0066997549 1.1010001 0.089762032
-0.12660019 0.0079577677 1.1010833 0.089762032
-0.11878314 0.0062774559 1.1004001 0.089762032
-0.13420314 0.010879585 1.1055001 0.089762032
-0.118389 0.010280159 1.1052729 0.089762032
-0.11110416 0.010882104 1.10575 0.089762032
-0.15033543 0.012199936 1.10625 0.089762032
-0.14172813 0.012183393 1.10475 0.089762032
-0.1260768 0.012193502 1.1056666 0.089762032
-0.14992391 0.014364961 1.1110001 0.089762032
-0.14189482 0.015251364 1.1095716 0.089762032
-0.13342181 0.014784902 1.1108 0.089762032
-0.1255006 0.015406258 1.1098751 0.089762032
-0.118128 0.014352031 1.11 0.089762032
-0.11081456 0.014361728 1.1107501 0.089762032
-0.10238969 0.01436496 1.1110001 0.089762032
-0.14981313 0.018868763 1.1159092 0.089762032
-0.14264201 0.019273115 1.1154287 0.089762032
-0.13477311 0.018841868 1.1143639 0.089762032
-0.117133 0.018229853 1.1146001 0.089762032
-0.10992576 0.018132053 1.1151252 0.089762032
-0.10226382 0.017440604 1.1145715 0.089762032
-0.12663193 0.019582635 1.1158572 0.089762032
-0.12345172 0.020870591 1.12 0.089762032
-0.12025709 0.020870591 1.12 0.089762032
-0.10863913 0.020889224 1.1210002 0.089762032
-0.1502416 0.025160044 1.12125 0.089762032
-0.14215747 0.025590125 1.1214 0.089762032
-0.13930032 0.022979809 1.1190001 0.089762032
-0.13355514 0.023830948 1.1190001 0.089762032
-0.12972502 0.022979809 1.1190001 0.089762032
-0.12636487 0.025204182 1.1232001 0.089762032
-0.11852287 0.024146508 1.1237501 0.089762032
-0.11012121 0.02417898 1.1252501 0.089762032
-0.13391206 0.02688258 1.1220001 0.089762032
-0.09413109 -0.038075361 1.0429167 0.090085335
-0.086152352 -0.038054693 1.0423334 0.090085335
-0.078389719 -0.038136531 1.0445834 0.090085335
-0.062354695 -0.037614569 1.0522001 0.090085335
-0.056503683 -0.037670966 1.0500001 0.090085335
-0.068748519 -0.03630526 1.049 0.090085335
-0.10233515 -0.030356644 1.0503638 0.090085335
-0.10182859 -0.033435643 1.0466 0.090085335
-0.09644489 -0.03422875 1.0465 0.090085335
-0.094066426 -0.031655759 1.0512729 0.090085335
-0.086493425 -0.030687246 1.0511539 0.090085335
-0.085459612 -0.034212396 1.046 0.090085335
-0.081559457 -0.034245104 1.0470001 0.090085335
-0.078482158 -0.031389717 1.0515001 0.090085335
-0.07260026 -0.034245104 1.0470001 0.090085335
-0.070323475 -0.030795541 1.0516669 0.090085335
-0.062705465 -0.031588368 1.0513333 0.090085335
-0.054763634 -0.0307444 1.0498667 0.090085335
-0.094308816 -0.028515311 1.056 0.090085335
-0.10180856 -0.024610257 1.0609165 0.090085335
-0.093449585 -0.025296556 1.0614445 0.090085335
-0.085899659 -0.024781259 1.0603638 0.090085335
-0.077339604 -0.024592228 1.0601001 0.090085335
-0.076164208 -0.026482156 1.0550001 0.090085335
-0.069463357 -0.024989583 1.0599 0.090085335
-0.061692655 -0.023310071 1.0601819 0.090085335
-0.060077693 -0.026465422 1.0543333 0.090085335
-0.056102756 -0.026482156 1.0550001 0.090085335
-0.094559751 -0.021530325 1.0652857 0.090085335
-0.085439697 -0.021073958 1.0656 0.090085335
-0.078446612 -0.021046801 1.0642 0.090085335
-0.069831319 -0.021341788 1.0655 0.090085335
-0.054983638 -0.021455336 1.0644001 0.090085335
-0.10239258 -0.020696459 1.067 0.090085335
-0.061639503 -0.020638268 1.064 0.090085335
-0.094498798 -0.017693652 1.0695001 0.090085335
-0.087054104 -0.018035285 1.0696667 0.090085335
-0.078379758 -0.018291663 1.0688001 0.090085335
-0.070110098 -0.018715601 1.0697501 0.090085335
-0.061652139 -0.016852083 1.0690001 0.090085335
-0.086012334 -0.014489206 1.0749999 0.090085335
-0.078590266 -0.014539405 1.0757273 0.090085335
-0.093463488 -0.013561955 1.0760001 0.090085335
-0.070475154 -0.014720957 1.0753332 0.089640185
-0.062916227 -0.013089214 1.0754 0.089640185
-0.05408676 -0.012671953 1.0747501 0.089640185
-0.093285225 -0.010670273 1.079 0.089640185
-0.086103983 -0.010670272 1.079 0.089640185
-0.085124746 -0.0069021615 1.0826154 0.089640185
-0.07824856 -0.0083971452 1.0838751 0.089640185
-0.07584507 -0.010670273 1.079 0.089640185
-0.071741514 -0.010670272 1.079 0.089640185
-0.070148505 -0.0081269313 1.0821251 0.089640185
-0.062465746 -0.010662856 1.0782501 0.089640185
-0.054288059 -0.010667801 1.07875 0.089640185
-0.09372589 -0.0065943017 1.0840833 0.089640185
-0.06277559 -0.0076226359 1.0836251 0.089640185
-0.054186434 -0.0072783474 1.0835557 0.089640185
-0.077319697 -0.0049671791 1.0882002 0.089640185
-0.069251753 -0.0045536072 1.08825 0.089640185
-0.062146738 -0.0045637195 1.0906668 0.089640185
-0.055841278 -0.0045567458 1.0890001 0.089640185
-0.094004996 -0.00041285451 1.0913334 0.089640185
-0.090876371 -0.0024813747 1.087 0.089640185
-0.086742379 -0.0024813747 1.087 0.089640185
-0.086708434 0.00074101496 1.0923333 0.089640185
-0.077552646 -0.00060266658 1.0925456 0.089640185
-0.069242164 0.00041584807 1.0913334 0.089640185
-0.062364373 -0.00018813078 1.0904446 0.089640185
-0.053094983 0.00027627489 1.0893333 0.089640185
-0.047243141 0.0012844843 1.0904546 0.089640185
-0.0603051 0.0016493993 1.0855 0.089640185
-0.056709547 0.001650223 1.0858334 0.089640185
-0.094798662 0.0027096078 1.0965 0.089640185
-0.084372409 0.0027096076 1.0965 0.089640185
-0.078837268 0.0033390061 1.0978 0.089640185
-0.072871812 0.0037504304 1.0960001 0.089640185
-0.094141692 0.0058611645 1.101 0.089640185
-0.086830817 0.0058624954 1.1012501 0.089640185
-0.07839413 0.0069056004 1.1003752 0.089640185
-0.070564263 0.0075231357 1.099 0.089640185
-0.068559229 0.0058221258 1.0936667 0.089640185
-0.060952365 0.0066440105 1.0916001 0.089640185
-0.05780445 0.0057866359 1.087 0.089640185
-0.054448329 0.0063351383 1.0922501 0.089640185
-0.048859939 0.0058292234 1.095 0.089640185
-0.062347669 0.0093473066 1.1003333 0.089640185
-0.053291481 0.008999574 1.1005001 0.089640185
-0.093537129 0.010098387 1.1062499 0.090019375
-0.086208016 0.010101398 1.1066667 0.090019375
-0.078785494 0.011144472 1.105875 0.090019375
-0.070335478 0.01113853 1.10525 0.090019375
-0.052877091 0.011765904 1.105 0.090019375
-0.061857454 0.012175122 1.1040001 0.090019375
-0.094227485 0.01653176 1.1144167 0.090019375
-0.085801087 0.01782891 1.1140002 0.090019375
-0.083225898 0.014339101 1.1090001 0.090019375
-0.078418151 0.015614443 1.1096001 0.090019375
-0.071256861 0.014771973 1.1098001 0.090019375
-0.062124316 0.014335868 1.1087501 0.090019375
-0.053702295 0.014339101 1.1090001 0.090019375
-0.077484794 0.019165888 1.113625 0.090019375
-0.070248201 0.018640671 1.1139001 0.090019375
-0.062404629 0.018638158 1.11375 0.090019375
-0.053959448 0.018648235 1.1143335 0.090019375
-0.10224546 0.020889228 1.1210001 0.090019375
-0.094784684 0.020889226 1.1210001 0.090019375
-0.089375772 0.020870591 1.12 0.090019375
-0.094043776 0.025241904 1.1248889 0.090019375
-0.086355783 0.025182167 1.12225 0.090019375
-0.078101553 0.025868919 1.1212223 0.090019375
-0.076528907 0.022979809 1.1190001 0.090019375
-0.070082687 0.022959271 1.118 0.090019375
-0.06265565 0.022964407 1.11825 0.090019375
-0.054541174 0.022979809 1.1190001 0.090019375
-0.054247461 0.02590302 1.1226667 0.090019375
-0.069661155 0.026371168 1.1210002 0.090019375
-0.062477734 0.02612065 1.1232858 0.090019375
-0.077990822 0.029514251 1.12475 0.090019375
-0.069512166 0.029547051 1.1259999 0.090019375
-0.062665947 0.030135777 1.128 0.090019375
-0.05451861 0.033043142 1.1295834 0.090019375
-0.05504702 0.032214094 1.1257501 0.090019375
-0.069813721 0.033976335 1.1308333 0.090019375
-0.06166359 0.034045115 1.1243751 0.090019375
-0.061559416 0.038947862 1.1254001 0.090019375
-0.05778851 0.038145553 1.1270001 0.090019375
-0.05402049 -0.099064134 0.99800003 0.090287574
-0.047409359 -0.099130303 0.99866676 0.090287574
-0.04367017 -0.099262655 1 0.090287574
-0.04176861 -0.099262655 1 0.090287574
-0.036977701 -0.099163391 0.99900007 0.090287574
-0.032228556 -0.099163391 0.99900007 0.090287574
-0.028400781 -0.098114289 0.99800009 0.090287574
-0.02460527 -0.098114297 0.99800003 0.090287574
-0.020809758 -0.099064134 0.99799997 0.090287574
-0.014177546 -0.099138573 0.99875009 0.090287574
-0.0075311256 -0.099130303 0.99866676 0.090287574
-0.0037262151 -0.098964863 0.99700004 0.090287574
-0.054336403 -0.095821656 1.0038334 0.090287574
-0.046344373 -0.095698923 1.0040768 0.090287574
-0.037853431 -0.095995344 1.0042143 0.090287574
-0.029508403 -0.094350792 1.0034167 0.090287574
-0.021592574 -0.095500492 1.0022727 0.090287574
-0.01450741 -0.095169358 1.0027143 0.090287574
-0.0066096936 -0.095742889 1.0030001 0.090287574
-0.055291794 -0.092260644 1.0108 0.090287574
-0.045946181 -0.092407972 1.0081999 0.090287574
-0.037337877 -0.092458375 1.0087501 0.090287574
-0.032518901 -0.092389643 1.008 0.090287574
-0.021993723 -0.092458382 1.0087501 0.090287574
-0.012392799 -0.092389643 1.008 0.090287574
-0.0066424841 -0.092389643 1.008 0.090287574
-0.053816106 -0.090831876 1.0120001 0.090287574
-0.044887137 -0.08981216 1.0113751 0.090287574
-0.037464269 -0.088919908 1.0121667 0.090287574
-0.029783988 -0.088970684 1.0127501 0.090287574
-0.022076186 -0.089343175 1.0126002 0.090287574
-0.014361387 -0.089835078 1.0116251 0.090287574
-0.0064074532 -0.089095637 1.0121819 0.090287574
-0.05369772 -0.086733721 1.017889 0.090287574
-0.045982838 -0.086077504 1.0188463 0.090287574
-0.022237906 -0.085339591 1.02 0.090287574
-0.014470306 -0.085664123 1.01925 0.090287574
-0.0070331115 -0.084935166 1.0182222 0.090287574
-0.037773278 -0.084801212 1.0205001 0.090287574
-0.030003523 -0.084780678 1.0202501 0.090287574
-0.045861799 -0.07892888 1.0215713 0.090287574
-0.037714429 -0.078793682 1.0209231 0.090287574
-0.029740022 -0.07886266 1.0207144 0.090287574
-0.022259613 -0.078700788 1.0209999 0.090287574
-0.014502632 -0.079075165 1.0216665 0.090287574
-0.0067280042 -0.079978108 1.0208334 0.090287574
-0.043744657 -0.080225714 1.024 0.090287574
-0.038227599 -0.080225714 1.024 0.090287574
-0.03206148 -0.080225714 1.024 0.090287574
-0.022335446 -0.080264881 1.0245001 0.090287574
-0.015510305 -0.080225714 1.024 0.090287574
-0.011457101 -0.075287722 1.01 0.090287574
-0.0066467132 -0.075194538 1.00875 0.090287574
-0.046683148 -0.073071882 1.0103334 0.090287574
-0.03741191 -0.073421612 1.0107501 0.090287574
-0.029710628 -0.073385298 1.01025 0.090287574
-0.022025 -0.073385298 1.01025 0.090287574
-0.014911486 -0.07296925 1.0098001 0.090287574
-0.0060719508 -0.072911136 1.0090001 0.090287574
-0.046075851 -0.069121055 1.0040833 0.090287574
-0.037280738 -0.069200158 1.0029167 0.090287574
-0.02948943 -0.069029905 1.0027502 0.090287574
-0.021873176 -0.069064327 1.00325 0.090287574
-0.013983154 -0.068897299 1.0033637 0.090287574
-0.0068738912 -0.068922162 1.0037274 0.090287574
-0.038563795 -0.06476631 1.0032501 0.090287574
-0.046126645 -0.064732499 1.0051668 0.090287574
-0.030183055 -0.064699978 1.0046667 0.090287574
-0.021922626 -0.064434715 1.0055001 0.090287574
-0.014283065 -0.06544093 1.00625 0.090287574
-0.0066269608 -0.065392151 1.0055001 0.090287574
-0.046255384 -0.061563864 1.011182 0.090287574
-0.014361617 -0.062910616 1.01175 0.090287574
-0.0070526041 -0.062322684 1.0116001 0.090287574
0.0019609681 -0.098015599 0.9970001 0.090283222
0.0086054625 -0.098114289 0.99800003 0.090283222
0.012400974 -0.099064134 0.99800003 0.090283222
0.018410536 -0.099064134 0.99799997 0.090283222
0.017128184 -0.098964863 0.99700004 0.090283222
0.025685268 -0.099064134 0.99800003 0.090283222
0.033293918 -0.099113762 0.99850005 0.090283222
0.039047658 -0.099262655 1 0.090283222
0.041858096 -0.099163391 0.99900007 0.090283222
0.010633621 -0.094618335 1.0035385 0.090283222
0.018189427 -0.094810434 1.0032499 0.090283222
0.025822174 -0.094816282 1.0033125 0.090283222
0.033455271 -0.094822481 1.0033749 0.090283222
0.041861422 -0.094722115 1.0038948 0.090283222
0.0023208158 -0.094563961 1.0033636 0.090283222
0.00102416 -0.092435464 1.0085 0.090283222
0.013483618 -0.092389643 1.008 0.090283222
0.0019912638 -0.088939831 1.0124 0.090283222
0.010258602 -0.089228213 1.0113001 0.090283222
0.018325884 -0.08975701 1.0107501 0.090283222
0.026423404 -0.089262769 1.0117 0.090283222
0.033639863 -0.089038521 1.0115457 0.090283222
0.041399654 -0.088815831 1.011 0.090283222
0.011107752 -0.085232429 1.0187001 0.090283222
0.018473709 -0.085638016 1.0189168 0.090283222
0.025807887 -0.085158102 1.0178 0.090283222
0.034057684 -0.084935382 1.0182222 0.090283222
0.0020055524 -0.084644422 1.0186001 0.090283222
0.041656062 -0.084532566 1.0172501 0.090283222
0.0012015693 -0.079900704 1.0219167 0.090283222
0.0052597919 -0.080874778 1.024 0.090283222
0.01019269 -0.080615148 1.024 0.090283222
0.011483621 -0.079342149 1.022 0.090283222
0.018780151 -0.078852288 1.0205715 0.090283222
0.026236219 -0.078897253 1.019375 0.090283222
0.033732075 -0.079361148 1.0200001 0.090283222
0.041970022 -0.079573356 1.0194615 0.090283222
0.016618438 -0.080225714 1.024 0.090283222
0.0019838803 -0.075287715 1.01 0.090283222
0.0096609164 -0.075213172 1.0090001 0.090283222
0.035755109 -0.075623155 1.0145001 0.090283222
0.040559679 -0.075585879 1.0140001 0.090283222
0.0011610372 -0.072746851 1.0089999 0.090283222
0.010624248 -0.073330812 1.0095 0.090283222
0.018293679 -0.073294491 1.0090001 0.090283222
0.025994109 -0.073367134 1.01 0.090283222
0.03172344 -0.073294491 1.0090001 0.090283222
0.033725001 -0.069611691 1.0032858 0.090283222
0.041308235 -0.073276334 1.0087501 0.090283222
0.0024130275 -0.068783477 1.0034616 0.090283222
0.010291586 -0.069194883 1.0026364 0.090283222
0.01882288 -0.070328996 1.0031667 0.090283222
0.026200742 -0.069441989 1.0032001 0.090283222
0.042018332 -0.069032498 1.0028 0.090283222
0.016212717 -0.068768755 0.99900007 0.090283222
0.010890315 -0.064705826 1.0047779 0.090283222
0.017162545 -0.066869088 0.99900007 0.090283222
0.018493023 -0.064563006 1.0025555 0.090283222
0.02506863 -0.065000653 1.0027779 0.090283222
0.0026144257 -0.065040492 1.005 0.090283222
0.03346635 -0.065278344 1.0037501 0.090283222
0.041349042 -0.064576522 1.0040001 0.090283222
-0.029351274 -0.061523836 1.0111002 0.090280518
-0.037444178 -0.060979284 1.0116251 0.090280518
-0.02247921 -0.061149031 1.0121429 0.090280518
-0.019253099 -0.060279038 1.016 0.090280518
-0.014437335 -0.060338371 1.0170001 0.090280518
-0.0047632186 -0.060279038 1.016 0.090280518
-0.045729138 -0.054983616 1.0198462 0.090280518
-0.044325221 -0.058289617 1.0150001 0.090280518
-0.037730016 -0.056596655 1.0193335 0.090280518
-0.029907446 -0.055399239 1.02 0.090280518
-0.028884562 -0.058289617 1.0150001 0.090280518
-0.024059355 -0.058289617 1.0150001 0.090280518
-0.022141509 -0.05590333 1.0195456 0.090280518
-0.014481936 -0.055670857 1.020125 0.090280518
-0.0067133247 -0.055595215 1.0187502 0.090280518
-0.037931301 -0.052028626 1.02475 0.090280518
-0.030773783 -0.051683325 1.0243335 0.090280518
-0.02192286 -0.051887758 1.0247144 0.090280518
-0.045779668 -0.051117301 1.026 0.090280518
-0.014540969 -0.051030111 1.0242501 0.090280518
-0.0086951172 -0.051017657 1.024 0.090280518
-0.0047941674 -0.050942924 1.0225 0.090280518
-0.045960058 -0.048377957 1.0300001 0.090280518
-0.037801471 -0.047504224 1.0284545 0.090280518
-0.030220216 -0.047285452 1.0275834 0.090280518
-0.022756824 -0.047998779 1.0288889 0.090280518
-0.014597754 -0.047316294 1.0282499 0.090280518
-0.0067727175 -0.047289129 1.0276666 0.090280518
-0.046138063 -0.044633158 1.0339999 0.090280518
-0.038848273 -0.044026595 1.0336001 0.090280518
-0.022117315 -0.04447997 1.0337144 0.090280518
-0.030414052 -0.043661553 1.03425 0.090280518
-0.014684815 -0.043672107 1.0345001 0.090280518
-0.0068269982 -0.04373543 1.036 0.090280518
-0.04654894 -0.040018838 1.0371819 0.090280518
-0.038412254 -0.040849041 1.0377501 0.090280518
-0.032499343 -0.040858649 1.0380001 0.090280518
-0.030226773 -0.038620666 1.0430909 0.090280518
-0.023131084 -0.038865868 1.0429001 0.090280518
-0.02067207 -0.040888406 1.0387501 0.090280518
-0.017713226 -0.040898487 1.039 0.090280518
-0.014566556 -0.040334057 1.0436251 0.090280518
-0.0062236232 -0.041458499 1.0448334 0.090280518
-0.045875542 -0.036437757 1.0414 0.090280518
-0.038578108 -0.037061412 1.04225 0.090280518
0.0019909733 -0.061934039 1.0115385 0.090156257
0.026352752 -0.061288729 1.0114446 0.090156257
0.033809088 -0.062097754 1.0113637 0.090156257
0.041306145 -0.061697222 1.012143 0.090156257
0.01052158 -0.061191406 1.0128573 0.090156257
0.018337103 -0.060972109 1.0115 0.090156257
-0.001865242 -0.060279038 1.016 0.090156257
0.011658647 -0.060279038 1.016 0.090156257
0.03291047 -0.060279038 1.016 0.090156257
0.043536387 -0.060279038 1.016 0.090156257
0.0018020966 -0.05579149 1.0195265 0.090156257
0.010405536 -0.057250101 1.0194445 0.090156257
0.018487547 -0.056129787 1.0196668 0.090156257
0.021297585 -0.058289617 1.0150001 0.090156257
0.02515775 -0.058289617 1.0150001 0.090156257
0.026454309 -0.054951206 1.0192308 0.090156257
0.033739693 -0.056090951 1.0202143 0.090156257
0.042036846 -0.056815598 1.0200909 0.090156257
0.011062209 -0.052884165 1.0259092 0.090156257
0.041706081 -0.052438635 1.0264446 0.090156257
0.0052687754 -0.051750392 1.0256667 0.090156257
0.018173737 -0.051923346 1.0254285 0.090156257
0.03487388 -0.051783923 1.0263333 0.090156257
6.7792018e-05 -0.050934624 1.0223334 0.090156257
0.023433628 -0.051017657 1.024 0.090156257
0.027301334 -0.050967831 1.023 0.090156257
0.0015361899 -0.047809303 1.0283333 0.090156257
0.010700095 -0.048517756 1.0300001 0.090156257
0.018816501 -0.0485246 1.0301429 0.090156257
0.026724106 -0.047481921 1.028 0.090156257
0.032941751 -0.048526991 1.029 0.090156257
0.035118703 -0.045634333 1.0344545 0.090156257
0.042264059 -0.046877716 1.0342728 0.090156257
0.044157248 -0.049381934 1.0305001 0.090156257
0.010993453 -0.044969507 1.0342222 0.090156257
0.018648095 -0.044983998 1.0345556 0.090156257
0.002772229 -0.044419043 1.0347501 0.090156257
0.026032221 -0.044060368 1.0344001 0.090156257
0.041611705 -0.04391836 1.0403334 0.090156257
0.0059954128 -0.041886352 1.039 0.090156257
0.011922573 -0.041886348 1.039 0.090156257
0.01817902 -0.041227773 1.039 0.090156257
0.026740475 -0.041886352 1.039 0.090156257
0.031679772 -0.041886352 1.039 0.090156257
-0.0073274402 -0.03797853 1.0512002 0.089815423
-0.014248759 -0.037035208 1.0508333 0.089815423
-0.027830834 -0.036270648 1.0480001 0.089815423
-0.024841581 -0.036270648 1.0480001 0.089815423
-0.052666247 -0.03422875 1.0465 0.089815423
-0.046613231 -0.033172186 1.044625 0.089815423
-0.03911107 -0.033331372 1.0451429 0.089815423
-0.032781608 -0.034245104 1.0470001 0.089815423
-0.029333647 -0.03118683 1.0524616 0.089815423
-0.022494288 -0.031672612 1.0514287 0.089815423
-0.015740899 -0.031515311 1.0500834 0.089815423
-0.0065203072 -0.032145396 1.0500001 0.089815423
-0.038107406 -0.029784108 1.0512 0.089815423
-0.012368878 -0.030746028 1.0465 0.089815423
-0.0092127984 -0.031560343 1.046 0.089815423
-0.046475142 -0.029525908 1.0511429 0.089815423
-0.034067422 -0.028515311 1.056 0.089815423
-0.032089733 -0.028542314 1.057 0.089815423
-0.0059591406 -0.028542316 1.057 0.089815423
-0.052321576 -0.024379481 1.0597 0.089815423
-0.045807704 -0.023338873 1.0596155 0.089815423
-0.043042883 -0.026469603 1.0545001 0.089815423
-0.040053599 -0.026482156 1.0550001 0.089815423
-0.037652142 -0.025165463 1.0600002 0.089815423
-0.028380003 -0.025042547 1.0602221 0.089815423
-0.021071503 -0.025570879 1.058875 0.089815423
-0.013961732 -0.026457051 1.054 0.089815423
-0.0099519789 -0.026457053 1.054 0.089815423
-0.0059732385 -0.025585378 1.0595001 0.089815423
-0.036665492 -0.021940369 1.0658751 0.089815423
-0.030328589 -0.021828489 1.0657144 0.089815423
-0.012639569 -0.02299674 1.0609 0.089815423
-0.021196594 -0.021671724 1.065125 0.089815423
-0.0060070721 -0.021679951 1.0655 0.089815423
-0.042418543 -0.020638268 1.064 0.089815423
-0.015112121 -0.020647969 1.0645001 0.089815423
-0.053795408 -0.016665872 1.0689167 0.089815423
-0.045980714 -0.017335888 1.0684446 0.089815423
-0.036880516 -0.018035285 1.0696667 0.089815423
-0.029416045 -0.017691227 1.069375 0.089815423
-0.021895409 -0.018306043 1.0696001 0.089815423
-0.012456353 -0.018009676 1.0681667 0.089815423
-0.038088284 -0.014283662 1.0731001 0.089815423
-0.045431066 -0.013534189 1.0737143 0.089815423
-0.029524881 -0.013674979 1.073375 0.089815423
-0.0060247248 -0.016660661 1.0685556 0.089761764
-0.021099662 -0.014521045 1.0742728 0.089761764
-0.013621198 -0.014303667 1.0747 0.089761764
-0.0060769483 -0.012706342 1.0776668 0.089761764
0.0010889031 -0.012674901 1.075 0.089761764
-0.04560655 -0.0097799022 1.0778573 0.089761764
-0.037820898 -0.0096267862 1.0771251 0.089761764
-0.030277664 -0.010253981 1.0784 0.089761764
-0.020782907 -0.009983046 1.0786667 0.089761764
-0.013875562 -0.010255958 1.0786 0.089761764
-0.0060769483 -0.010657087 1.0776668 0.089761764
0.001351261 -0.0093757799 1.07775 0.089761764
-0.046600323 -0.0059013166 1.0827779 0.089761764
-0.029518133 -0.0064030932 1.0833637 0.089761764
-0.021967731 -0.0061774831 1.0831001 0.089761764
-0.013836115 -0.0068488889 1.0835 0.089761764
-0.0046376041 -0.0071822065 1.0838572 0.089761764
0.0017853334 -0.0058968998 1.0820001 0.089761764
-0.037987214 -0.0055542537 1.0818751 0.089761764
-0.010979648 -0.0052491701 1.0896667 0.089761764
-0.006661851 -0.0050760638 1.0895001 0.089761764
-0.045350749 -0.0019617705 1.08575 0.089761764
-0.037485268 -0.0020638648 1.0852001 0.089761764
-0.031427972 -0.0019629118 1.0862499 0.089761764
-0.029809991 0.0010404366 1.0912001 0.089761764
-0.022063516 0.00027825916 1.0913335 0.089761764
-0.020592226 -0.0024806138 1.0866667 0.089761764
-0.012582562 0.0006181791 1.086375 0.089761764
-0.014181281 0.00062074279 1.0902501 0.089761764
-0.0042497884 0.00027678066 1.0909168 0.089761764
0.0026517564 -0.0019623409 1.0860001 0.089761764
-0.038722098 0.00077073567 1.0901428 0.089761764
-0.0076741697 0.0016514903 1.0862499 0.089761764
0.0017313237 0.00083016197 1.0906 0.089761764
-0.038511064 0.0037529971 1.09675 0.089761764
-0.028088126 0.0037538526 1.0970001 0.089761764
-0.021837687 0.003754708 1.0972501 0.089761764
0.0021580737 0.0037538528 1.097 0.089761764
-0.013420353 0.0058092605 1.0912501 0.089761764
-0.0061539919 0.0058114789 1.0916667 0.089761764
-0.0045220116 0.0075191809 1.0984001 0.089761764
-0.043694288 0.0037504304 1.0960001 0.089622706
-0.045494094 0.007107757 1.0992 0.089622706
-0.038656026 0.0069089751 1.1008751 0.089622706
-0.030233184 0.0068979962 1.0991249 0.089622706
-0.021465207 0.0075291814 1.0996001 0.089622706
-0.01352389 0.0089960396 1.1 0.089622706
-0.045143571 0.011146088 1.1059999 0.089622706
-0.037824076 0.011157845 1.1071666 0.089622706
-0.030399891 0.011137389 1.105125 0.089622706
-0.022670127 0.011475346 1.1040001 0.089622706
-0.0051809275 0.01113853 1.10525 0.089622706
-0.013573066 0.012175122 1.1040001 0.089622706
-0.04527647 0.014342333 1.1092501 0.089622706
-0.037954401 0.014364961 1.1110001 0.089622706
-0.029878214 0.014764215 1.1092001 0.089622706
-0.022774065 0.015043315 1.1090001 0.089622706
-0.01299583 0.014756458 1.1086 0.089622706
-0.0048514875 0.015760459 1.1100001 0.089622706
-0.045463789 0.018640028 1.1138334 0.089622706
-0.038102433 0.018664651 1.1153333 0.089622706
-0.030950027 0.018846083 1.1146365 0.089622706
-0.021731857 0.019053536 1.1133001 0.089622706
-0.013976279 0.01882223 1.1132728 0.089622706
-0.0056717582 0.019836579 1.1131431 0.089622706
-0.045643829 0.022964407 1.11825 0.089622706
-0.037690312 0.025603017 1.122 0.089622706
-0.036099855 0.022979809 1.1190001 0.089622706
-0.030417383 0.022972964 1.1186668 0.089622706
-0.030070975 0.025758648 1.1208572 0.089622706
-0.021603217 0.024865555 1.1176002 0.089622706
-0.013732893 0.022938738 1.1170001 0.089622706
-0.0052381204 0.022949006 1.1175001 0.089622706
-0.045765337 0.026224688 1.12125 0.089622706
-0.025483383 0.026194975 1.12 0.089622706
-0.013785138 0.026227731 1.1213751 0.089622706
-0.0052606356 0.02624551 1.1221251 0.089622706
-0.012764934 0.032200024 1.12525 0.089622706
0.0016537867 -0.03953376 1.0430666 0.089661956
0.010115468 -0.038208976 1.043 0.089661956
0.034483481 -0.039440811 1.0440834 0.089661956
0.043836918 -0.041680891 1.04625 0.089661956
0.041671004 -0.038730484 1.0509092 0.089661956
0.019291516 -0.037653159 1.0422 0.089661956
0.026845964 -0.038080335 1.0430834 0.089661956
0.047587417 -0.037138149 1.05 0.089661956
-0.00092849071 -0.036287956 1.0485001 0.089661956
0.036972471 -0.03630526 1.049 0.089661956
0.00098044856 -0.031666096 1.0516365 0.089661956
0.0030551772 -0.034245104 1.0470001 0.089661956
0.010511617 -0.034220573 1.0462501 0.089661956
0.0089853164 -0.030687978 1.0511539 0.089661956
0.018946378 -0.034179684 1.0450001 0.089661956
0.025943274 -0.0342342 1.0466666 0.089661956
0.02574238 -0.030573532 1.0520834 0.089661956
0.034037113 -0.031148612 1.0508889 0.089661956
0.042796958 -0.031489767 1.0491668 0.089661956
0.017436551 -0.030522691 1.0507693 0.089661956
0.037896499 -0.032254163 1.0470001 0.089661956
0.040882893 -0.032254163 1.0470001 0.089661956
6.9588736e-05 -0.028605321 1.0593333 0.089661956
0.0015826098 -0.025363849 1.06075 0.089661956
0.0087363552 -0.024181187 1.0598 0.089661956
0.011103101 -0.026482156 1.0550001 0.089661956
0.014112319 -0.026482156 1.0550001 0.089661956
0.017188847 -0.025075903 1.05925 0.089661956
0.025265293 -0.02559793 1.0600002 0.089661956
0.033322431 -0.025595268 1.0598751 0.089661956
0.041175753 -0.026469605 1.0545001 0.089661956
0.00057507912 -0.021928009 1.06525 0.089661956
0.041425914 -0.022593332 1.0609165 0.089661956
0.01772842 -0.02153668 1.0655714 0.089661956
0.025388762 -0.021675339 1.06525 0.089661956
0.033468436 -0.021660078 1.0645001 0.089661956
0.0091774296 -0.020643119 1.06425 0.089661956
0.0010861427 -0.016670721 1.0691668 0.089661956
0.0084568299 -0.01743423 1.0692501 0.089661956
0.017357808 -0.018711228 1.0695001 0.089661956
0.026181867 -0.018041117 1.0700001 0.089661956
0.033612624 -0.016669264 1.0690833 0.089661956
0.041691631 -0.016647203 1.06775 0.089661956
0.010033822 -0.013946952 1.0747499 0.089661956
0.017441506 -0.014712967 1.0747501 0.089661956
0.025186142 -0.014291915 1.0738001 0.089661956
0.050779104 -0.013340954 1.0738333 0.090156615
0.033767134 -0.012663109 1.074 0.090156615
0.041937184 -0.012663109 1.074 0.090156615
0.0069063082 -0.00997975 1.0783334 0.090156615
0.0098894481 -0.0070604007 1.0825385 0.090156615
0.017272888 -0.0071727252 1.0825001 0.090156615
0.019562814 -0.010670273 1.079 0.090156615
0.022640487 -0.010670273 1.079 0.090156615
0.026010664 -0.0074080508 1.0825999 0.090156615
0.033900999 -0.010662856 1.0782501 0.090156615
0.041106526 -0.010670272 1.079 0.090156615
0.042679254 -0.007969927 1.0842223 0.090156615
0.050926525 -0.010253981 1.0784 0.090156615
0.033795174 -0.0067797764 1.0838183 0.090156615
0.050687544 -0.0068234089 1.0840001 0.090156615
0.03731161 -0.0045525613 1.0880001 0.090156615
0.042483848 -0.0045525613 1.0880001 0.090156615
0.048690539 -0.0045525613 1.0880001 0.090156615
0.0087489421 -0.0020666043 1.0863999 0.090156615
0.017627977 -0.0024796624 1.0862501 0.090156615
0.025897875 -0.0024802333 1.0865 0.090156615
0.03448312 0.00041653364 1.0902001 0.090156615
0.041885279 -0.0012425436 1.0886 0.090156615
0.051293861 0.00033999464 1.0893637 0.090156615
0.0098587694 0.00077176659 1.0917143 0.090156615
0.017715089 0.00062354637 1.091625 0.090156615
0.02601991 0.00062378403 1.091625 0.090156615
0.0426226 0.0014626145 1.0843637 0.090156615
0.048634835 0.00061874918 1.08675 0.090156615
0.0094662914 0.0037564191 1.0977501 0.090156615
0.017803151 0.0037538526 1.097 0.090156615
0.026165783 0.0037564191 1.0977501 0.090156615
0.031362221 0.0037538526 1.097 0.090156615
0.034375139 0.0097298278 1.101 0.090156615
0.035413567 0.0058203512 1.0933334 0.090156615
0.042521946 0.0057972828 1.0890001 0.090156615
0.049924936 0.0058150277 1.0923334 0.090156615
0.042236529 0.0083511546 1.0978 0.090156615
0.050197888 0.0079355221 1.0983334 0.090156615
0.042494435 0.011339802 1.1044 0.090156615
0.0024622206 0.0073498213 1.0995715 0.08998365
0.0091399802 0.0072552245 1.1004444 0.08998365
0.018381285 0.0081280852 1.1003333 0.08998365
0.025885759 0.0072566187 1.1006666 0.08998365
0.0017520062 0.011339421 1.1044 0.08998365
0.009972332 0.01127856 1.1042858 0.08998365
0.016345607 0.011653047 1.1042501 0.08998365
0.026763897 0.01127541 1.1040001 0.08998365
0.0021807188 0.015392634 1.1088334 0.08998365
0.0099142659 0.015746683 1.109 0.08998365
0.01769023 0.017047746 1.1086429 0.08998365
0.026001725 0.01602271 1.1086 0.08998365
0.034385335 0.015230775 1.108 0.08998365
0.041587763 0.016231369 1.1101112 0.08998365
0.0021901943 0.019685986 1.1131668 0.08998365
0.0091427369 0.019833917 1.1130002 0.08998365
0.027237853 0.020038409 1.1131668 0.08998365
0.03393608 0.019682879 1.1130003 0.08998365
0.041318204 0.020022878 1.1123334 0.08998365
0.020170661 0.020730831 1.1125001 0.08998365
0.0021974186 0.022938738 1.1170001 0.08998365
0.010062314 0.024655204 1.1177002 0.08998365
0.018123114 0.025057368 1.1166667 0.08998365
0.026640868 0.024655204 1.1177001 0.08998365
0.033814691 0.02481577 1.11775 0.08998365
0.041491479 0.024002425 1.117 0.08998365
0.002203681 0.026210887 1.1206666 0.08998365
0.0075276857 0.027259853 1.12 0.08998365
0.026695404 0.027259853 1.12 0.08998365
0.036279261 0.027259853 1.12 0.08998365
0.041603632 0.027259853 1.12 0.08998365
0.0022125666 0.029538304 1.1256667 0.08998365
0.010530555 0.031178258 1.1246667 0.08998365
-0.0020708593 0.031744499 1.128 0.08998365
-0.12218855 0.027454568 1.128 0.090028748
-0.1181064 0.027503245 1.13 0.090028748
-0.11058843 0.027503245 1.1300001 0.090028748
-0.15011407 0.032284163 1.1301112 0.090028748
-0.14779693 0.029573293 1.1270001 0.090028748
-0.14243928 0.029573293 1.1270001 0.090028748
-0.13337389 0.030484254 1.1267143 0.090028748
-0.12571862 0.031826612 1.1308334 0.090028748
-0.11755984 0.031885404 1.133 0.090028748
-0.11020386 0.032687489 1.1297501 0.090028748
-0.142572 0.033502556 1.1308889 0.090028748
-0.13493872 0.033538587 1.1306001 0.090028748
-0.12035102 0.035623178 1.1376667 0.090028748
-0.1106506 0.034573779 1.1270001 0.090028748
-0.15005729 0.036289997 1.136 0.090028748
-0.13925642 0.036289997 1.136 0.090028748
-0.133856 0.036289997 1.136 0.090028748
-0.12643176 0.036329929 1.1372501 0.090028748
-0.15033786 0.039605998 1.1381252 0.090028748
-0.14172685 0.039619159 1.1385001 0.090028748
-0.13372597 0.04019662 1.1395 0.090028748
-0.12624164 0.039506849 1.1397144 0.090028748
-0.11828301 0.040465724 1.1405715 0.090028748
-0.11626677 0.038348634 1.133 0.090028748
-0.11002975 0.039022934 1.1316668 0.090028748
-0.11012193 0.042519219 1.1408001 0.090028748
-0.15002632 0.043071736 1.1440001 0.090028748
-0.14247473 0.04309056 1.1445 0.090028748
-0.13334839 0.043071736 1.1440001 0.090028748
-0.12616996 0.043096837 1.1446667 0.090028748
-0.11971159 0.043121938 1.1453334 0.090028748
-0.15012589 0.04759552 1.1481 0.090028748
-0.14233622 0.046308093 1.147143 0.090028748
-0.13376382 0.0473524 1.1470001 0.090028748
-0.12544487 0.048684184 1.1480001 0.090028748
-0.11812595 0.048425965 1.1478463 0.090028748
-0.11012504 0.047575176 1.1475834 0.090028748
-0.14182727 0.051248245 1.153143 0.090028748
-0.13467546 0.051599018 1.1522501 0.090028748
-0.12916951 0.052135356 1.1520001 0.090028748
-0.11062069 0.052169301 1.15275 0.090028748
-0.10109496 0.024811467 1.1248 0.089800261
-0.1039564 0.027454568 1.128 0.089800261
-0.1023999 0.03272476 1.1321334 0.089800261
-0.09403339 0.032304503 1.1325001 0.089800261
-0.092077427 0.029573293 1.1270001 0.089800261
-0.086645216 0.029547051 1.126 0.089800261
-0.085864849 0.032870796 1.1298333 0.089800261
-0.078360967 0.033954915 1.1300834 0.089800261
-0.099468067 0.03635389 1.138 0.089800261
-0.094058134 0.03635389 1.138 0.089800261
-0.086408228 0.036321945 1.1370001 0.089800261
-0.10460152 0.03841633 1.1350001 0.089800261
-0.1020361 0.039979033 1.1385001 0.089800261
-0.09421394 0.039666653 1.1398751 0.089800261
-0.085007235 0.040269215 1.1385001 0.089800261
-0.077836134 0.040689208 1.1381111 0.089800261
-0.070897333 0.040897146 1.1379001 0.089800261
-0.066772915 0.03946162 1.1340001 0.089800261
-0.060927633 0.041916862 1.1323334 0.089800261
-0.1021679 0.043071736 1.1440001 0.089800261
-0.094554044 0.043071736 1.1440001 0.089800261
-0.088104844 0.043109383 1.1450001 0.089800261
-0.063707411 0.042808183 1.1370001 0.089800261
-0.10175531 0.047801375 1.1482728 0.089800261
-0.093974859 0.047783744 1.1478181 0.089800261
-0.086347058 0.048452031 1.1476667 0.089800261
-0.077555947 0.048474241 1.1473334 0.089800261
-0.070878774 0.048920158 1.1465454 0.089800261
-0.06800773 0.045918893 1.1426667 0.089800261
-0.061808616 0.046249352 1.141875 0.089800261
-0.10180984 0.052146666 1.1522501 0.089800261
-0.095215261 0.052135356 1.1520001 0.089800261
-0.083166979 0.052135356 1.1520001 0.089800261
-0.079881087 0.052135356 1.1520001 0.089800261
-0.10167347 0.056261487 1.1557001 0.089800261
-0.094015479 0.056940388 1.1561 0.089800261
-0.086302012 0.056417443 1.154 0.089800261
-0.045929555 0.029527372 1.12525 0.089478925
-0.037373014 0.02952737 1.1252501 0.089478925
-0.029447425 0.030378038 1.125 0.089478925
-0.022841807 0.030431772 1.1247143 0.089478925
-0.0054912623 0.032829538 1.1259999 0.089478925
-0.046470843 0.033795036 1.1312728 0.089478925
-0.037496604 0.032846317 1.1290001 0.089478925
-0.030505318 0.033368245 1.1285 0.089478925
-0.021417718 0.034268368 1.1302859 0.089478925
-0.014968766 0.03341569 1.1300001 0.089478925
-0.0431288 0.036289997 1.136 0.089478925
-0.037768222 0.036329929 1.1372501 0.089478925
-0.030222153 0.03635389 1.138 0.089478925
-0.024767345 0.036289997 1.136 0.089478925
-0.054358035 0.039549939 1.1321429 0.089478925
-0.046451803 0.040684074 1.138 0.089478925
-0.037819933 0.040714178 1.1388334 0.089478925
-0.030263253 0.04073979 1.1395555 0.089478925
-0.023472726 0.041135989 1.1372223 0.089478925
-0.020069292 0.039135754 1.1350001 0.089478925
-0.014398038 0.03990341 1.1334287 0.089478925
-0.010636532 0.039200164 1.1265001 0.089478925
-0.0058137346 0.038647473 1.126 0.089478925
-0.0054586693 0.041064944 1.1314286 0.089478925
-0.054022074 0.042845834 1.1380001 0.089478925
-0.015056039 0.042795639 1.1366668 0.089478925
-0.055694502 0.045918893 1.1426667 0.089478925
-0.052513327 0.048761982 1.147 0.089478925
-0.046234652 0.048603076 1.1460835 0.089478925
-0.043394558 0.045207579 1.143 0.089478925
-0.040484559 0.045918893 1.1426667 0.089478925
-0.03751846 0.049243405 1.1473076 0.089478925
-0.029855393 0.049518075 1.1466364 0.089478925
-0.028711703 0.046817444 1.1425 0.089478925
-0.022237146 0.046047036 1.1407144 0.089478925
-0.014024886 0.046203431 1.1407499 0.089478925
-0.0058136224 0.046064533 1.141143 0.089478925
-0.0050163651 0.050476808 1.1474446 0.089478925
-0.021714063 0.050768256 1.1458335 0.089478925
-0.014106687 0.050842337 1.1475 0.089478925
0.01825613 0.03166106 1.1249167 0.089898385
0.026172232 0.031449001 1.125 0.089898385
0.033539649 0.031872325 1.1255454 0.089898385
0.041719835 0.032675967 1.1231875 0.089898385
0.0022231969 0.033947699 1.129889 0.089898385
0.0086714616 0.03487692 1.1301429 0.089898385
0.018354937 0.036130268 1.131 0.089898385
0.025880992 0.036130268 1.131 0.089898385
0.033349074 0.036066379 1.1289999 0.089898385
0.0016932123 0.03893004 1.1342502 0.089898385
0.0095161591 0.040874667 1.1378182 0.089898385
0.013024177 0.03841633 1.1350001 0.089898385
0.018879887 0.039336473 1.1348573 0.089898385
0.026507167 0.038947437 1.1347501 0.089898385
0.033881258 0.040052861 1.1324 0.089898385
0.040938262 0.041356321 1.1309999 0.089898385
0.043270458 0.038919646 1.1246001 0.089898385
0.0026711323 0.041974235 1.1378 0.089898385
0.017823163 0.04242133 1.1382 0.089898385
0.025596306 0.041959174 1.1374 0.089898385
-0.0020855463 0.042770535 1.136 0.089898385
0.031410452 0.042789362 1.1365001 0.089898385
0.0022485668 0.045207579 1.143 0.089898385
0.010942495 0.045750953 1.143 0.089898385
0.0095203379 0.049512625 1.1461668 0.089898385
0.018540855 0.046274312 1.1425 0.089898385
0.026396854 0.04705381 1.141625 0.089898385
0.033245701 0.04683315 1.1401999 0.089898385
0.039026294 0.045009818 1.138 0.089898385
0.042794742 0.046310704 1.1395715 0.089898385
0.0022544689 0.049686518 1.1460003 0.089898385
0.018589305 0.050752062 1.1455001 0.089898385
0.025658319 0.051274709 1.145 0.089898385
0.034564778 0.051116053 1.1455001 0.089898385
0.042577997 0.050786719 1.14625 0.089898385
0.003356718 0.054255225 1.1505001 0.089898385
0.0099213757 0.054255225 1.1505001 0.089898385
0.019126432 0.055155914 1.1497144 0.089898385
0.026285917 0.05526185 1.1486667 0.089898385
0.033466298 0.055107672 1.1487143 0.089898385
0.042725634 0.054243434 1.1502501 0.089898385
-0.10673045 0.20036133 1.1233333 0.36302662
-0.10124709 0.19901556 1.12175 0.36302662
-0.10754205 0.2021445 1.1096667 0.36302662
-0.10182109 0.20123871 1.1163334 0.36302662
-0.11078773 0.20364191 1.114 0.36302662
-0.10213886 0.20188895 1.10825 0.36302662
-0.11157713 0.20838632 1.1148335 0.36302662
-0.10154957 0.20387 1.1018749 0.36302662
-0.11524058 0.20991462 1.123 0.36302662
-0.10865466 0.20931773 1.1066667 0.36302662
-0.10648407 0.20956065 1.09875 0.36302662
-0.102081 0.20597237 1.0963334 0.36302662
-0.11896425 0.21863963 1.1313334 0.36302662
-0.11411178 0.21103027 1.1120001 0.36302662
-0.10166718 0.20928997 1.0918889 0.36302662
-0.095815256 0.20929153 1.09325 0.36302662
-0.11534321 0.21758103 1.1240001 0.36302662
-0.1115765 0.21757597 1.1148334 0.36302662
-0.12294681 0.21971166 1.1350001 0.36302662
-0.10814808 0.21672356 1.1086668 0.36302662
-0.12575793 0.22467579 1.1322223 0.36302662
-0.10126334 0.21478379 1.0987501 0.36302662
-0.12004359 0.22264653 1.128 0.36302662
-0.11813409 0.22547941 1.1234167 0.36302662
-0.10190846 0.21930662 1.1057501 0.36302662
-0.12343545 0.22659989 1.1263334 0.36302662
-0.11125259 0.22540778 1.1151251 0.36302662
-0.10759858 0.22442034 1.1102501 0.36302662
-0.11483011 0.2251258 1.1190001 0.36302662
-0.10191512 0.2245789 1.1058332 0.36302662
-0.13200949 0.23394267 1.1325001 0.36302662
-0.12802248 0.2299995 1.1290001 0.36302662
-0.12585171 0.23327748 1.1224 0.36302662
-0.11972497 0.23064339 1.1210001 0.36302662
-0.1172801 0.23427854 1.1166668 0.36302662
-0.11013957 0.2337725 1.1145834 0.36302662
-0.10240894 0.23076592 1.1095715 0.36302662
-0.10240427 0.23485398 1.1124444 0.36302662
-0.13350926 0.24144538 1.1315001 0.36302662
-0.12334149 0.23576507 1.1190001 0.36302662
-0.12785374 0.24156874 1.12125 0.36302662
-0.12451997 0.23991036 1.1168333 0.36302662
-0.1175571 0.24050914 1.1076925 0.36302662
-0.11040281 0.24118938 1.1087335 0.36302662
-0.10225157 0.24114595 1.1094999 0.36302662
-0.12238621 0.24238519 1.1103333 0.36302662
-0.12782523 0.24897639 1.1210001 0.36302662
-0.12417812 0.24928461 1.1155714 0.36302662
-0.11786984 0.24859589 1.1097779 0.36302662
-0.11008345 0.2489344 1.1079285 0.36302662
-0.11622632 0.25120658 1.1120001 0.36302662
-0.094869249 0.20012479 1.122 0.35139671
-0.094682977 0.20284298 1.1135 0.35139671
-0.095664166 0.20262079 1.1065 0.35139671
-0.096321449 0.20389274 1.102 0.35139671
-0.094300263 0.2080477 1.0994285 0.35139671
-0.092548423 0.20692098 1.1070001 0.35139671
-0.094652094 0.21790008 1.107 0.35139671
-0.096146636 0.21502814 1.1 0.35139671
-0.091802485 0.21937318 1.1150001 0.35139671
-0.088074356 0.21941331 1.1170001 0.35139671
-0.081578724 0.22089253 1.13 0.35139671
-0.079498626 0.22538854 1.1310002 0.35139671
-0.094457395 0.22443585 1.1072 0.35139671
-0.091076583 0.2253309 1.11475 0.35139671
-0.089216173 0.22492589 1.118 0.35139671
-0.085511461 0.2263768 1.1252223 0.35139671
-0.080599658 0.22802861 1.1263334 0.35139671
-0.075914539 0.2304076 1.131 0.35139671
-0.086794317 0.2339965 1.1165001 0.35139671
-0.085242309 0.23099364 1.1216668 0.35139671
-0.078172795 0.23256592 1.1231819 0.35139671
-0.09389545 0.23291978 1.1105001 0.35139671
-0.09419702 0.23366587 1.1140716 0.35139671
-0.076960728 0.23613088 1.1164286 0.35139671
0.035250533 0.18520609 1.1144 0.52647281
0.039755329 0.18211848 1.113 0.52647281
0.041857552 0.18384346 1.1065714 0.52647281
0.031622455 0.1917461 1.1313335 0.52647281
0.037293907 0.18639256 1.1079999 0.52647281
0.028082494 0.19239452 1.1330001 0.52647281
0.034348655 0.19343334 1.1265001 0.52647281
0.031450484 0.1954066 1.138 0.52647281
0.035431515 0.19121961 1.1156667 0.52647281
0.037997484 0.18920182 1.108 0.52647281
0.040763922 0.19414452 1.1146001 0.52647281
0.042158645 0.19107854 1.1066667 0.52647281
0.048963029 0.19303074 1.1082001 0.52647281
0.036104105 0.20069695 1.13125 0.52647281
0.040643539 0.2010159 1.123 0.52647281
0.042617284 0.20095132 1.1186668 0.52647281
0.049851719 0.19658139 1.1140001 0.52647281
0.038683359 0.20119686 1.128 0.52647281
0.049323961 0.20163348 1.12 0.52647281
0.03526298 0.20856509 1.1215 0.51631743
0.040985849 0.20689519 1.1148001 0.51631743
0.035465177 0.20978929 1.1166667 0.51631743
0.042611007 0.20931225 1.1074001 0.51631743
0.035897702 0.2113716 1.10825 0.51631743
0.031926855 0.21723992 1.1167501 0.51631743
0.037757427 0.21208224 1.1010001 0.51631743
0.042203438 0.21128476 1.0986668 0.51631743
0.035601232 0.21723619 1.1072501 0.51631743
0.044818439 0.21187173 1.0945001 0.51631743
0.037723131 0.21502814 1.1 0.51631743
0.041846428 0.21681213 1.0984286 0.51631743
0.045145158 0.21454932 1.0940001 0.51631743
0.027654618 0.22539414 1.123 0.51631743
0.033812288 0.22516504 1.1153636 0.51631743
0.039959628 0.22000872 1.1040001 0.51631743
0.039004751 0.22371383 1.1067501 0.51631743
0.04261142 0.22459841 1.1002221 0.51631743
0.020727918 0.23425281 1.1236666 0.51631743
0.024224689 0.23043309 1.1206666 0.51631743
0.0272201 0.23293652 1.1180001 0.51631743
0.036924973 0.22702417 1.1075001 0.51631743
0.031833939 0.23354518 1.1135 0.51631743
0.034438614 0.23137563 1.1065 0.51631743
0.037757427 0.22778536 1.1010001 0.51631743
0.042626392 0.2272362 1.0916668 0.51631743
0.036877684 0.23255913 1.0997999 0.51631743
0.020344021 0.24176617 1.1221668 0.51631743
0.021351958 0.23789293 1.1190001 0.51631743
0.026625326 0.24066854 1.1170627 0.51631743
0.037551664 0.23279066 1.095 0.51631743
0.031857766 0.24113877 1.1143334 0.51631743
