# .PCD v0.7 - Point Cloud Data file format
VERSION 0.7
FIELDS x y z rgba
SIZE 4 4 4 4
TYPE F F F U
COUNT 1 1 1 1
WIDTH 1138
HEIGHT 1
VIEWPOINT 0 0 0 1 0 0 0
POINTS 1138
DATA ascii
-0.16263676 0.2853663 1.097 4280501610
-0.1604044 0.28510618 1.0960001 4278658379
-0.15788692 0.28432578 1.0930001 4278393925
-0.15295748 0.2791231 1.0730001 4286089906
-0.15007323 0.27756229 1.067 4287206576
-0.14665678 0.27496099 1.057 4287600538
-0.1436889 0.27314004 1.0500001 4287269739
-0.14142238 0.27261978 1.0480001 4288519259
-0.13863127 0.27105898 1.0420001 4289439304
-0.13573186 0.26923805 1.0350001 4289766965
-0.1329883 0.26767725 1.029 4289832239
-0.13064958 0.26689684 1.026 4289963053
-0.12844771 0.26637658 1.024 4290225712
-0.12650052 0.26637658 1.024 4290488886
-0.12455332 0.26637658 1.024 4291015745
-0.12296531 0.26715699 1.0270001 4290425415
-0.12124808 0.26767725 1.029 4289835094
-0.11929138 0.26767725 1.029 4288126555
-0.11779078 0.2687178 1.033 4285497430
-0.11605073 0.26923805 1.0350001 4284578407
-0.11408261 0.26923805 1.0350001 4284120190
-0.11189785 0.2687178 1.033 4283528838
-0.10929501 0.26715699 1.0270001 4283726479
-0.10713307 0.2666367 1.0250001 4283793042
-0.1047735 0.26559615 1.021 4284713625
-0.10242914 0.26455566 1.0170001 4285502878
-0.10039644 0.26429552 1.016 4285962401
-0.098173708 0.26351511 1.013 4286290337
-0.096152417 0.26325497 1.0120001 4286420900
-0.094228037 0.26325497 1.0120001 4286681762
-0.092121243 0.26273471 1.01 4287336611
-0.090111367 0.26247457 1.0090001 4287333272
-0.088280097 0.26273471 1.01 4286541189
-0.086359523 0.26273471 1.01 4287462291
-0.084689751 0.26351511 1.013 4285622656
-0.082926877 0.26403537 1.0150001 4287007132
-0.080996796 0.26403537 1.0150001 4286023832
-0.079144612 0.26429552 1.016 4285631386
-0.077516608 0.26533604 1.0200001 4285434009
-0.075725213 0.26585633 1.0220001 4285434009
-0.074287176 0.26767725 1.029 4285236376
-0.072330467 0.26767725 1.029 4284315787
-0.070784107 0.26923805 1.0350001 4284513679
-0.068948969 0.26975831 1.0370001 4284316814
-0.066977054 0.26975831 1.0370001 4284973719
-0.065005139 0.26975831 1.0370001 4285302169
-0.063154787 0.2702786 1.039 4285959581
-0.06123795 0.27053872 1.0400001 4285959581
-0.059317309 0.27079883 1.041 4285762722
-0.057392869 0.27105898 1.0420001 4286419103
-0.055411443 0.27105898 1.0420001 4286614153
-0.053327464 0.27053872 1.0400001 4286809707
-0.051744845 0.27261978 1.0480001 4287728465
-0.049419694 0.27079883 1.041 4287793478
-0.047804747 0.2728799 1.049 4287004491
-0.043415219 0.28328523 1.0890001 4279642952
-0.041534252 0.28458592 1.0940001 4279381069
-0.0395982 0.28562647 1.098 4280236380
-0.037476126 0.2853663 1.097 4280760930
-0.035422377 0.28562647 1.098 4281285724
-0.033364821 0.28588659 1.0990001 4282796894
-0.031275008 0.28588659 1.0990001 4288191396
-0.029185196 0.28588659 1.0990001 4288059038
-0.027070727 0.28562647 1.098 4288585635
-0.024982816 0.28562647 1.098 4289243306
-0.022915756 0.28588659 1.0990001 4288848546
-0.020825941 0.28588659 1.0990001 4289177511
-0.018753177 0.2861467 1.1 4289045925
-0.016661461 0.2861467 1.1 4289243306
-0.014569746 0.2861467 1.1 4289440685
-0.012489375 0.28640684 1.1010001 4289045927
-0.010386316 0.2861467 1.1 4289506478
-0.0082870601 0.28588659 1.0990001 4289111718
-0.0062028854 0.2861467 1.1 4289309097
-0.0041186451 0.28666696 1.102 4290493369
-0.0020286343 0.28744739 1.105 4283387979
0.0066763167 0.30097434 1.1570001 4279703057
0.0088764206 0.30097434 1.1570001 4279111434
0.010616997 0.28848791 1.1090001 4278782469
0.012725827 0.28848791 1.1090001 4290230199
0.014714266 0.2861467 1.1 4289638062
0.016790703 0.28588659 1.0990001 4289374892
0.018880516 0.28588659 1.0990001 4289440685
0.020951251 0.28562647 1.098 4289440431
0.023018178 0.2853663 1.097 4289374638
0.02505842 0.28484604 1.095 4289243565
0.02711584 0.28458592 1.0940001 4289243565
0.029169461 0.28432578 1.0930001 4289309358
0.031247862 0.28432578 1.0930001 4289375151
0.033326268 0.28432578 1.0930001 4289375921
0.03537228 0.28406566 1.092 4289112749
0.037448782 0.28406566 1.092 4289440944
0.039525285 0.28406566 1.092 4289572530
0.04156369 0.28380549 1.0910001 4289506224
0.043678291 0.28406566 1.092 4289243306
0.045838594 0.28458592 1.0940001 4290098100
0.047962703 0.28484604 1.095 4285756014
0.050044909 0.28484604 1.095 4278584576
0.062652379 0.2853663 1.097 4289506476
0.064620361 0.28484604 1.095 4289967027
0.066641651 0.28458592 1.0940001 4289309356
0.068721958 0.28458592 1.0940001 4289375149
0.070802264 0.28458592 1.0940001 4289375151
0.07288257 0.28458592 1.0940001 4289440944
0.074962877 0.28458592 1.0940001 4289572531
0.077043183 0.28458592 1.0940001 4289572531
0.07912349 0.28458592 1.0940001 4289506738
0.081278019 0.28484604 1.095 4289375152
0.083360225 0.28484604 1.095 4289572531
0.085520469 0.28510618 1.0960001 4289572531
0.087684505 0.2853663 1.097 4289638324
0.089770518 0.2853663 1.097 4289638324
0.091689058 0.28484604 1.095 4289507507
0.093771264 0.28484604 1.095 4289441714
0.09585347 0.28484604 1.095 4289375919
0.097935677 0.28484604 1.095 4289310126
0.10001788 0.28484604 1.095 4289440944
0.10219333 0.28510618 1.0960001 4289440944
0.10427745 0.28510618 1.0960001 4289440944
0.10636155 0.28510618 1.0960001 4289440944
0.10844567 0.28510618 1.0960001 4289506737
0.11052977 0.28510618 1.0960001 4289506737
0.11261388 0.28510618 1.0960001 4289506737
0.11459333 0.28484604 1.095 4289506737
0.11667555 0.28484604 1.095 4289572530
0.11875775 0.28484604 1.095 4289506737
0.12083996 0.28484604 1.095 4289506737
0.12292217 0.28484604 1.095 4289506737
0.12500438 0.28484604 1.095 4289572530
0.12720263 0.28510618 1.0960001 4289638323
0.12928675 0.28510618 1.0960001 4289638323
0.13161059 0.28562647 1.098 4289572530
0.13369849 0.28562647 1.098 4289506738
0.13578641 0.28562647 1.098 4289506738
0.13787432 0.28562647 1.098 4289506738
0.13983476 0.2853663 1.097 4289506738
0.1417914 0.28510618 1.0960001 4289572531
0.14374425 0.28484604 1.095 4289572531
0.14569329 0.28458592 1.0940001 4289572531
0.14777358 0.28458592 1.0940001 4289506738
0.14999086 0.28484604 1.095 4289506738
0.15221195 0.28510618 1.0960001 4289506738
0.15429606 0.28510618 1.0960001 4289638324
0.15623748 0.28484604 1.095 4289704117
0.15817511 0.28458592 1.0940001 4289769910
0.16025542 0.28458592 1.0940001 4289704117
0.16233572 0.28458592 1.0940001 4289638324
0.16441603 0.28458592 1.0940001 4289572531
0.16664852 0.28484604 1.095 4289572531
0.16873074 0.28484604 1.095 4289638324
0.17081293 0.28484604 1.095 4289769910
0.17289515 0.28484604 1.095 4289769910
0.17497735 0.28484604 1.095 4289769910
0.17689787 0.28458592 1.0940001 4289704117
0.17881456 0.28432578 1.0930001 4289507252
0.18089297 0.28432578 1.0930001 4289507252
0.18297137 0.28432578 1.0930001 4289573300
0.18504977 0.28432578 1.0930001 4289573298
0.18712819 0.28432578 1.0930001 4289573296
0.18972591 0.28510618 1.0960001 4289046952
-0.36146554 0.28797641 1.0990001 4285559925
-0.35937575 0.28797641 1.0990001 4285494134
-0.35501024 0.28614217 1.092 4285230707
-0.35228732 0.28561807 1.09 4289310388
-0.34925073 0.284832 1.087 4290428869
-0.34686434 0.28456995 1.0860001 4285560187
-0.34479925 0.28456995 1.0860001 4284507499
-0.34336531 0.28509402 1.0880001 4286151811
-0.34192383 0.28561807 1.09 4289046701
-0.34016293 0.28588012 1.0910001 4290296253
-0.33839822 0.28614217 1.092 4291283146
-0.3360137 0.28588012 1.0910001 4291086021
-0.33363304 0.28561807 1.09 4291151812
-0.33186451 0.28588012 1.0910001 4291414471
-0.33039448 0.28640419 1.0930001 4291348678
-0.33101952 0.28876251 1.102 4291282889
-0.33369964 0.29295507 1.118 4291217096
-0.33157369 0.29295507 1.118 4291282889
-0.33180514 0.29505134 1.126 4291217603
-0.33229899 0.29740965 1.1350001 4291020475
-0.33159509 0.29871985 1.1400001 4290691763
-0.32971627 0.29898188 1.141 4290494384
-0.32754657 0.29898188 1.141 4290954682
-0.31083333 0.28561807 1.09 4289572778
-0.30876064 0.28561807 1.09 4287401359
-0.30612519 0.28509402 1.0880001 4284703848
-0.30349737 0.28456995 1.0860001 4283519574
-0.30143228 0.28456995 1.0860001 4283980377
-0.29964286 0.284832 1.087 4283782996
-0.29757586 0.284832 1.087 4287993746
-0.295237 0.28456995 1.0860001 4289112482
-0.29344189 0.284832 1.087 4288454040
-0.2916429 0.28509402 1.0880001 4288322711
-0.28957403 0.28509402 1.0880001 4288322454
-0.28803363 0.28561807 1.09 4288059282
-0.28622329 0.28588012 1.0910001 4288848544
-0.28414869 0.28588012 1.0910001 4288782751
-0.28207409 0.28588012 1.0910001 4288519579
-0.28025615 0.28614217 1.092 4288782753
-0.27817965 0.28614217 1.092 4289111205
-0.27610314 0.28614217 1.092 4289242791
-0.27427754 0.28640419 1.0930001 4289242793
-0.27219915 0.28640419 1.0930001 4289177000
-0.27012074 0.28640419 1.0930001 4289177000
-0.26828757 0.28666621 1.0940001 4289242793
-0.26645061 0.28692827 1.095 4289702828
-0.26436841 0.28692827 1.095 4289768621
-0.26228619 0.28692827 1.095 4289768621
-0.26044163 0.28719029 1.0960001 4289768621
-0.25835752 0.28719029 1.0960001 4289768621
-0.25650725 0.28745231 1.097 4289702828
-0.25442123 0.28745231 1.097 4289768621
-0.25233522 0.28745231 1.097 4289768621
-0.25024921 0.28745231 1.097 4289636781
-0.24816318 0.28745231 1.097 4289505195
-0.24607717 0.28745231 1.097 4289702574
-0.24399117 0.28745231 1.097 4289834160
-0.24212568 0.28771439 1.098 4289702574
-0.24025637 0.28797641 1.0990001 4289768367
-0.23816656 0.28797641 1.0990001 4289834160
-0.23607674 0.28797641 1.0990001 4289702828
-0.23419984 0.28823844 1.1 4289965487
-0.23210813 0.28823844 1.1 4289702826
-0.23001641 0.28823844 1.1 4289440935
-0.22792469 0.28823844 1.1 4289572521
-0.22562768 0.28797641 1.0990001 4289767589
-0.22333446 0.28771439 1.098 4290224547
-0.22084355 0.28719029 1.0960001 4290942364
-0.21875945 0.28719029 1.0960001 4285740095
-0.21667534 0.28719029 1.0960001 4285537583
-0.21459123 0.28719029 1.0960001 4286325043
-0.21270101 0.28745231 1.097 4285600806
-0.21061499 0.28745231 1.097 4285009180
-0.20852898 0.28745231 1.097 4284352533
-0.2062548 0.28719029 1.0960001 4283959056
-0.20398439 0.28692827 1.095 4284223255
-0.20190218 0.28692827 1.095 4283959056
-0.20000246 0.28719029 1.0960001 4284746008
-0.19809893 0.28745231 1.097 4285009180
-0.19601291 0.28745231 1.097 4284682527
-0.19392692 0.28745231 1.097 4285078312
-0.1918409 0.28745231 1.097 4285538866
-0.18975489 0.28745231 1.097 4284291879
-0.18766887 0.28745231 1.097 4284692543
-0.18575205 0.28771439 1.098 4289236623
-0.18383139 0.28797641 1.0990001 4286804851
-0.18174158 0.28797641 1.0990001 4287925386
-0.17948832 0.28771439 1.098 4288651165
-0.1774004 0.28771439 1.098 4289243304
-0.17531249 0.28771439 1.098 4289569708
-0.17322457 0.28771439 1.098 4289241774
-0.1709808 0.28745231 1.097 4289573823
-0.16874084 0.28719029 1.0960001 4284971659
-0.16650465 0.28692827 1.095 4280895591
-0.16502307 0.28797641 1.0990001 4280699247
-0.16278501 0.28771439 1.098 4280633196
-0.16055074 0.28745231 1.097 4279053135
-0.15716466 0.28509402 1.0880001 4278590790
-0.15238729 0.28011537 1.069 4286615729
-0.14965127 0.2788052 1.064 4287929772
-0.14457555 0.27304041 1.0420001 4287468421
-0.14341521 0.27461261 1.0480001 4287664218
-0.14101754 0.27382654 1.0450001 4288782152
-0.13823216 0.27225432 1.039 4289504824
-0.13494502 0.26963395 1.029 4289569837
-0.13272983 0.2691099 1.0270001 4290029364
-0.13052225 0.2685858 1.0250001 4290686527
-0.12832227 0.26806176 1.023 4291080520
-0.12625344 0.26779974 1.0220001 4291277899
-0.12443168 0.26806176 1.023 4291870290
-0.12272585 0.2685858 1.0250001 4291476821
-0.12101241 0.2691099 1.0270001 4290229335
-0.11905951 0.2691099 1.0270001 4288126291
-0.11756273 0.27015802 1.031 4285760851
-0.1159386 0.27094415 1.034 4284249693
-0.11397239 0.27094415 1.034 4283791224
-0.11146456 0.26963395 1.029 4283529351
-0.10918859 0.26884785 1.026 4283661458
-0.10713307 0.2685858 1.0250001 4283793042
-0.1047735 0.26753765 1.021 4284648084
-0.10242914 0.26648954 1.0170001 4285437338
-0.10039644 0.26622751 1.016 4286028187
-0.098173708 0.26544139 1.013 4286355869
-0.096152417 0.26517937 1.0120001 4286617762
-0.094134927 0.26491734 1.011 4286747810
-0.092030041 0.26439324 1.0090001 4287271331
-0.090111367 0.26439324 1.0090001 4287466400
-0.088280097 0.26465529 1.01 4286476938
-0.086359523 0.26465529 1.01 4286147973
-0.084606148 0.26517937 1.0120001 4285821063
-0.082926877 0.26596546 1.0150001 4286744988
-0.080996796 0.26596546 1.0150001 4285893275
-0.079144612 0.26622751 1.016 4285631899
-0.077440612 0.26701361 1.0190001 4285302680
-0.075725213 0.26779974 1.0220001 4285434009
-0.07421498 0.26937193 1.028 4285105044
-0.072260179 0.26937193 1.028 4284052356
-0.070715718 0.27094415 1.034 4283986822
-0.068815999 0.27120617 1.0350001 4283789443
-0.066912465 0.27146819 1.036 4284446092
-0.064942449 0.27146819 1.036 4284709264
-0.063033223 0.27173021 1.0370001 4284972437
-0.061120186 0.27199227 1.0380001 4285038999
-0.059260331 0.27251634 1.0400001 4284907926
-0.057282709 0.27251634 1.0400001 4285236111
-0.055305086 0.27251634 1.0400001 4285562748
-0.05322491 0.27199227 1.0380001 4286086243
-0.05120172 0.27173021 1.0370001 4286873413
-0.049277272 0.27199227 1.0380001 4286543409
-0.045402482 0.284832 1.087 4279311394
-0.043335486 0.284832 1.087 4279247933
-0.041496288 0.28640419 1.0930001 4279907153
-0.039562136 0.28745231 1.097 4280170836
-0.037476126 0.28745231 1.097 4280695638
-0.035390116 0.28745231 1.097 4281088848
-0.033334464 0.28771439 1.098 4284836729
-0.031246552 0.28771439 1.098 4287599259
-0.029158639 0.28771439 1.098 4288190624
-0.027070727 0.28771439 1.098 4288651428
-0.024982816 0.28771439 1.098 4289045927
-0.022915756 0.28797641 1.0990001 4289111718
-0.020825941 0.28797641 1.0990001 4289111718
-0.018753177 0.28823844 1.1 4289045925
-0.016676608 0.28850046 1.1010001 4289505965
-0.014582991 0.28850046 1.1010001 4289440172
-0.012489375 0.28850046 1.1010001 4288914341
-0.010386316 0.28823844 1.1 4289309099
-0.0082870601 0.28797641 1.0990001 4289177511
-0.0062028854 0.28823844 1.1 4289440683
-0.0041186451 0.28876251 1.102 4290559675
-0.0020231267 0.28876251 1.102 4283914580
0.010616997 0.29059672 1.1090001 4278519297
0.012725827 0.29059672 1.1090001 4290427578
0.01470089 0.28797641 1.0990001 4289374890
0.016760146 0.28745231 1.097 4289374892
0.018846156 0.28745231 1.097 4289374892
0.020932168 0.28745231 1.097 4289375149
0.022976214 0.28692827 1.095 4289375149
0.025012651 0.28640419 1.0930001 4289375151
0.02706627 0.28614217 1.092 4289309358
0.029089399 0.28561807 1.09 4289309358
0.031162096 0.28561807 1.09 4289375151
0.033234794 0.28561807 1.09 4289244333
0.035307493 0.28561807 1.09 4289178540
0.037414487 0.28588012 1.0910001 4289375921
0.03948909 0.28588012 1.0910001 4289441714
0.04156369 0.28588012 1.0910001 4289440942
0.043638293 0.28588012 1.0910001 4289638321
0.045796692 0.28640419 1.0930001 4290295992
0.047918901 0.28666621 1.0940001 4286217078
0.049999204 0.28666621 1.0940001 4278519296
0.062595271 0.28719029 1.0960001 4288914852
0.064502329 0.28640419 1.0930001 4289638321
0.066458911 0.28588012 1.0910001 4289506478
0.068596318 0.28614217 1.092 4289374892
0.070672825 0.28614217 1.092 4289308845
0.072749324 0.28614217 1.092 4289440431
0.074825831 0.28614217 1.092 4289506738
0.076972753 0.28640419 1.0930001 4289506738
0.079051159 0.28640419 1.0930001 4289440945
0.081129566 0.28640419 1.0930001 4289375152
0.083207972 0.28640419 1.0930001 4289506738
0.085364401 0.28666621 1.0940001 4289572531
0.087524645 0.28692827 1.095 4289441459
0.089606851 0.28692827 1.095 4289441459
0.091521583 0.28640419 1.0930001 4289441714
0.09359999 0.28640419 1.0930001 4289375921
0.095678397 0.28640419 1.0930001 4289310126
0.097756796 0.28640419 1.0930001 4289244333
0.099926546 0.28666621 1.0940001 4289375151
0.10200685 0.28666621 1.0940001 4289375151
0.10408716 0.28666621 1.0940001 4289440944
0.10616747 0.28666621 1.0940001 4289440944
0.10834672 0.28692827 1.095 4289440944
0.11042892 0.28692827 1.095 4289440944
0.11230563 0.28640419 1.0930001 4289506737
0.11427938 0.28614217 1.092 4289506737
0.11635588 0.28614217 1.092 4289440944
0.11854084 0.28640419 1.0930001 4289375151
0.12061924 0.28640419 1.0930001 4289375151
0.12269765 0.28640419 1.0930001 4289375151
0.12489022 0.28666621 1.0940001 4289440944
0.12708658 0.28692827 1.095 4289440944
0.12916879 0.28692827 1.095 4289440944
0.13137086 0.28719029 1.0960001 4289440944
0.13333321 0.28692827 1.095 4289506738
0.13541541 0.28692827 1.095 4289440945
0.13749762 0.28692827 1.095 4289375152
0.13957983 0.28692827 1.095 4289375152
0.14153267 0.28666621 1.0940001 4289440945
0.14348169 0.28640419 1.0930001 4289506738
0.14542693 0.28614217 1.092 4289572531
0.14750344 0.28614217 1.092 4289572531
0.1497169 0.28640419 1.0930001 4289638324
0.15193419 0.28666621 1.0940001 4289638324
0.1540145 0.28666621 1.0940001 4289638324
0.1560948 0.28666621 1.0940001 4289638324
0.15803052 0.28640419 1.0930001 4289704117
0.16010892 0.28640419 1.0930001 4289704117
0.16203895 0.28614217 1.092 4289638324
0.16411546 0.28614217 1.092 4289572531
0.16619195 0.28614217 1.092 4289572531
0.16826846 0.28614217 1.092 4289638324
0.17034496 0.28614217 1.092 4289704117
0.17226356 0.28588012 1.0910001 4289769910
0.17433816 0.28588012 1.0910001 4289769910
0.17641276 0.28588012 1.0910001 4289769910
0.17848736 0.28588012 1.0910001 4289638838
0.18056196 0.28588012 1.0910001 4289638838
0.18246917 0.28561807 1.09 4289902265
0.18454187 0.28561807 1.09 4289770677
0.18661457 0.28561807 1.09 4289507503
0.18903348 0.28614217 1.092 4288981159
0.19093497 0.28588012 1.0910001 4289112999
-0.35806772 0.28901047 1.095 4285625465
-0.35468513 0.28795472 1.0910001 4285757053
-0.35196412 0.28742686 1.0890001 4286744207
-0.34892944 0.28663507 1.0860001 4290954961
-0.34654495 0.28637111 1.085 4288125862
-0.34416425 0.28610718 1.0840001 4284836210
-0.34210294 0.28610718 1.0840001 4285757055
-0.34035537 0.28637111 1.085 4285428088
-0.33860397 0.28663507 1.0860001 4287467155
-0.33653888 0.28663507 1.0860001 4287335568
-0.3338578 0.28610718 1.0840001 4287269773
-0.3317965 0.28610718 1.0840001 4287006855
-0.32943106 0.28584322 1.0830001 4287467404
-0.32797623 0.28637111 1.085 4287401613
-0.32711455 0.28742686 1.0890001 4287335568
-0.32564071 0.28795472 1.0910001 4287336085
-0.32415926 0.28848261 1.0930001 4287730073
-0.32237554 0.28874654 1.0940001 4287796889
-0.32117358 0.28953832 1.097 4287599760
-0.31996015 0.29033017 1.1 4287139719
-0.31497872 0.28769079 1.09 4286744448
-0.31147069 0.28637111 1.085 4286876035
-0.30969265 0.28663507 1.0860001 4285625720
-0.30734429 0.28637111 1.085 4284572779
-0.30471841 0.28584322 1.0830001 4284045665
-0.302659 0.28584322 1.0830001 4284440677
-0.30087715 0.28610718 1.0840001 4284309342
-0.29909152 0.28637111 1.085 4283717201
-0.29702833 0.28637111 1.085 4289177509
-0.29496515 0.28637111 1.085 4289506474
-0.29317191 0.28663507 1.0860001 4288980130
-0.29137489 0.286899 1.087 4289309095
-0.28957403 0.28716293 1.0880001 4289506474
-0.28776938 0.28742686 1.0890001 4289111718
-0.28596094 0.28769079 1.09 4289374377
-0.28388825 0.28769079 1.09 4289176998
-0.28207409 0.28795472 1.0910001 4289111205
-0.27999949 0.28795472 1.0910001 4289242791
-0.2779249 0.28795472 1.0910001 4289374377
-0.2758503 0.28795472 1.0910001 4289505963
-0.2737757 0.28795472 1.0910001 4289505965
-0.27195013 0.28821868 1.092 4289505965
-0.26987362 0.28821868 1.092 4289440172
-0.26804233 0.28848261 1.0930001 4289440172
-0.26596394 0.28848261 1.0930001 4289702828
-0.26388553 0.28848261 1.0930001 4289768621
-0.26180711 0.28848261 1.0930001 4289768621
-0.25972873 0.28848261 1.0930001 4289768621
-0.25788605 0.28874654 1.0940001 4289768621
-0.25603956 0.28901047 1.095 4289768621
-0.25395736 0.28901047 1.095 4289768621
-0.25210518 0.28927439 1.0960001 4289834414
-0.25002107 0.28927439 1.0960001 4289768367
-0.24793696 0.28927439 1.0960001 4289636781
-0.24585286 0.28927439 1.0960001 4289768367
-0.24376875 0.28927439 1.0960001 4289965746
-0.24190515 0.28953832 1.097 4289834160
-0.23981914 0.28953832 1.097 4289899953
-0.23773313 0.28953832 1.097 4289965746
-0.23564711 0.28953832 1.097 4289833901
-0.23377402 0.28980231 1.098 4290096044
-0.23189712 0.29006624 1.0990001 4289833129
-0.2298073 0.29006624 1.0990001 4289243813
-0.22751029 0.28980231 1.098 4289376169
-0.22521707 0.28953832 1.097 4289112482
-0.22292766 0.28927439 1.0960001 4289569440
-0.22064205 0.28901047 1.095 4291273896
-0.21816064 0.28848261 1.0930001 4288504687
-0.21588454 0.28821868 1.092 4285210158
-0.21380804 0.28821868 1.092 4286128178
-0.21192543 0.28848261 1.0930001 4286324530
-0.20984703 0.28848261 1.0930001 4286061870
-0.20757852 0.28821868 1.092 4285273381
-0.20550203 0.28821868 1.092 4284550939
-0.20323925 0.28795472 1.0910001 4284551452
-0.20116465 0.28795472 1.0910001 4284616986
-0.19927251 0.28821868 1.092 4285074716
-0.19719602 0.28821868 1.092 4285732646
-0.19494084 0.28795472 1.0910001 4285537836
-0.19286624 0.28795472 1.0910001 4285144619
-0.19061676 0.28769079 1.09 4284946986
-0.18889001 0.28821868 1.092 4283371547
-0.18698458 0.28848261 1.0930001 4286206295
-0.18524453 0.28901047 1.095 4289697687
-0.1833296 0.28927439 1.0960001 4287002230
-0.18124549 0.28927439 1.0960001 4288254350
-0.1789979 0.28901047 1.095 4288914591
-0.17691569 0.28901047 1.095 4289506476
-0.17483349 0.28901047 1.095 4289898673
-0.17275128 0.28901047 1.095 4289373360
-0.1705132 0.28874654 1.0940001 4289640129
-0.16812497 0.28821868 1.092 4286880170
-0.16589643 0.28795472 1.0910001 4280435040
-0.16352151 0.28742686 1.0890001 4279975524
-0.16130245 0.28716293 1.0880001 4280435817
-0.1590872 0.286899 1.087 4280631654
-0.15673129 0.28637111 1.085 4280235356
-0.15210219 0.28162023 1.067 4287141812
-0.14965127 0.28082845 1.064 4287929762
-0.14388183 0.27370214 1.0370001 4287204722
-0.14259413 0.27502185 1.0420001 4287861838
-0.13966809 0.27317429 1.0350001 4288979517
-0.13663563 0.27106282 1.0270001 4289439280
-0.13442045 0.2705349 1.0250001 4289570089
-0.13208362 0.26974311 1.0220001 4290160950
-0.12988555 0.26921523 1.0200001 4290753090
-0.12782052 0.2689513 1.0190001 4291015240
-0.12588283 0.2689513 1.0190001 4291015240
-0.12382352 0.26868737 1.018 4291343692
-0.12200746 0.2689513 1.0190001 4291213649
-0.1201876 0.26921523 1.0200001 4290031695
-0.1185958 0.27000704 1.023 4287995210
-0.11596633 0.26842344 1.0170001 4286089808
-0.11515371 0.27106282 1.0270001 4284052563
-0.11331104 0.27132675 1.028 4283462511
-0.11113959 0.27079883 1.026 4283331972
-0.10886932 0.27000704 1.023 4283661458
-0.10681951 0.26974311 1.0220001 4283727508
-0.10456826 0.2689513 1.0190001 4284648086
-0.1022277 0.26789555 1.0150001 4285502618
-0.10019881 0.26763162 1.0140001 4286027419
-0.098076798 0.26710376 1.0120001 4286289565
-0.09586738 0.26631191 1.0090001 4286551205
-0.093855605 0.26604798 1.008 4286615973
-0.091847613 0.26578405 1.0070001 4286877601
-0.089932747 0.26578405 1.0070001 4287270304
-0.088105284 0.26604798 1.008 4286215563
-0.08627402 0.26631191 1.0090001 4285162106
-0.08443895 0.26657587 1.01 4285822346
-0.082600072 0.2668398 1.011 4286351257
-0.080677599 0.2668398 1.011 4285762972
-0.078833014 0.26710376 1.0120001 4285566363
-0.077212624 0.26815951 1.016 4285368986
-0.075428829 0.26868737 1.018 4285302680
-0.073998399 0.2705349 1.0250001 4284907665
-0.072400764 0.27185461 1.0300001 4283920000
-0.070442155 0.27185461 1.0300001 4283920516
-0.068550035 0.27211854 1.031 4283920516
-0.066589527 0.27211854 1.031 4284708751
-0.064629018 0.27211854 1.031 4285037717
-0.062729299 0.27238247 1.0320001 4285235355
-0.060825773 0.27264643 1.033 4285433504
-0.058975421 0.27317429 1.0350001 4285237148
-0.057007309 0.27317429 1.0350001 4285434258
-0.055039193 0.27317429 1.0350001 4285695359
-0.052968532 0.27264643 1.033 4286416489
-0.050954841 0.27238247 1.0320001 4287400779
-0.049039908 0.27264643 1.033 4287267385
-0.047485746 0.27502185 1.0420001 4287728461
-0.045402482 0.286899 1.087 4279903277
-0.043335486 0.286899 1.087 4279708234
-0.041496288 0.28848261 1.0930001 4280433244
-0.039453946 0.28874654 1.0940001 4280170839
-0.037339479 0.28848261 1.0930001 4280695378
-0.035261072 0.28848261 1.0930001 4281352272
-0.033213027 0.28874654 1.0940001 4286876312
-0.031161178 0.28901047 1.095 4287467673
-0.029078972 0.28901047 1.095 4288519589
-0.027021419 0.28927439 1.0960001 4288717221
-0.024937309 0.28927439 1.0960001 4288782755
-0.022874054 0.28953832 1.097 4289309097
-0.020788042 0.28953832 1.097 4289177511
-0.018719079 0.28980231 1.098 4289309097
-0.016631167 0.28980231 1.098 4289374379
-0.014543255 0.28980231 1.098 4289505965
-0.012455343 0.28980231 1.098 4289111720
-0.010357989 0.28953832 1.097 4289111720
-0.0082644382 0.28927439 1.0960001 4289309097
-0.0061972467 0.29006624 1.0990001 4289769648
-0.0041186451 0.29085803 1.102 4290099124
-0.0020231267 0.29085803 1.102 4283717201
0.010636144 0.29323345 1.1110001 4278519297
0.012748777 0.29323345 1.1110001 4290295992
0.01470089 0.29006624 1.0990001 4289506476
0.016760146 0.28953832 1.097 4289374892
0.018863337 0.28980231 1.098 4289374892
0.020932168 0.28953832 1.097 4289375149
0.022976214 0.28901047 1.095 4289506735
0.025012651 0.28848261 1.0930001 4289440944
0.02706627 0.28821868 1.092 4289375151
0.029089399 0.28769079 1.09 4289375151
0.031162096 0.28769079 1.09 4289440944
0.033204306 0.28742686 1.0890001 4289244333
0.035307493 0.28769079 1.09 4289310126
0.037448782 0.28821868 1.092 4289310128
0.039525285 0.28821868 1.092 4289310128
0.041601788 0.28821868 1.092 4289375149
0.043678291 0.28821868 1.092 4289506989
0.045796692 0.28848261 1.0930001 4290098613
0.047875095 0.28848261 1.0930001 4286875008
0.049953502 0.28848261 1.0930001 4278716676
0.062652379 0.28953832 1.097 4288849059
0.064502329 0.28848261 1.0930001 4289967286
0.066458911 0.28795472 1.0910001 4289506478
0.068596318 0.28821868 1.092 4289374892
0.070672825 0.28821868 1.092 4289308845
0.072749324 0.28821868 1.092 4289440431
0.074825831 0.28821868 1.092 4289440945
0.076972753 0.28848261 1.0930001 4289440945
0.079051159 0.28848261 1.0930001 4289440945
0.081055336 0.28821868 1.092 4289440945
0.083207972 0.28848261 1.0930001 4289375152
0.085364401 0.28874654 1.0940001 4289375152
0.087444708 0.28874654 1.0940001 4289309873
0.089525014 0.28874654 1.0940001 4289375666
0.091521583 0.28848261 1.0930001 4289375921
0.093514353 0.28821868 1.092 4289375921
0.095678397 0.28848261 1.0930001 4289375919
0.097756796 0.28848261 1.0930001 4289310126
0.099926546 0.28874654 1.0940001 4289375151
0.10200685 0.28874654 1.0940001 4289375151
0.1041823 0.28901047 1.095 4289440944
0.10626451 0.28901047 1.095 4289440944
0.10834672 0.28901047 1.095 4289440944
0.11032807 0.28874654 1.0940001 4289440944
0.11220288 0.28821868 1.092 4289440944
0.11417474 0.28795472 1.0910001 4289440944
0.11624934 0.28795472 1.0910001 4289440944
0.11843239 0.28821868 1.092 4289375151
0.12061924 0.28848261 1.0930001 4289375151
0.12269765 0.28848261 1.0930001 4289375151
0.12489022 0.28874654 1.0940001 4289440944
0.12708658 0.28901047 1.095 4289440944
0.12916879 0.28901047 1.095 4289440944
0.13113114 0.28874654 1.0940001 4289440944
0.13308968 0.28848261 1.0930001 4289506738
0.13516808 0.28848261 1.0930001 4289440945
0.13724647 0.28848261 1.0930001 4289375152
0.13932489 0.28848261 1.0930001 4289375152
0.14140329 0.28848261 1.0930001 4289440945
0.14348169 0.28848261 1.0930001 4289506738
0.14542693 0.28821868 1.092 4289572531
0.14736834 0.28795472 1.0910001 4289638324
0.14944294 0.28795472 1.0910001 4289835703
0.15151756 0.28795472 1.0910001 4289769910
0.15373294 0.28821868 1.092 4289638324
0.15580945 0.28821868 1.092 4289638324
0.15788594 0.28821868 1.092 4289638324
0.15996245 0.28821868 1.092 4289638324
0.16189055 0.28795472 1.0910001 4289572531
0.16381487 0.28769079 1.09 4289506738
0.16588756 0.28769079 1.09 4289572531
0.16780616 0.28742686 1.0890001 4289638324
0.16987696 0.28742686 1.0890001 4289704117
0.17194776 0.28742686 1.0890001 4289769910
0.17401856 0.28742686 1.0890001 4289769910
0.17608936 0.28742686 1.0890001 4289769910
0.17816016 0.28742686 1.0890001 4289704631
0.18023096 0.28742686 1.0890001 4289770424
0.18213436 0.28716293 1.0880001 4289770679
0.18420325 0.28716293 1.0880001 4289573298
0.18627216 0.28716293 1.0880001 4289310126
0.18834105 0.28716293 1.0880001 4288717987
0.19093497 0.28795472 1.0910001 4288915620
-0.36431435 0.29109269 1.095 4290888390
-0.36223215 0.29109269 1.095 4287993499
-0.35949212 0.29056102 1.0930001 4285690490
-0.35741371 0.29056102 1.0930001 4285625469
-0.35436001 0.28976348 1.09 4285691008
-0.35164091 0.28923184 1.0880001 4285428349
-0.34860814 0.2884343 1.085 4288849586
-0.34590617 0.28790262 1.0830001 4289573309
-0.34384677 0.28790262 1.0830001 4287007382
-0.3417874 0.28790262 1.0830001 4284638321
-0.339728 0.28790262 1.0830001 4285427836
-0.3376686 0.28790262 1.0830001 4285099125
-0.33560923 0.28790262 1.0830001 4284967537
-0.33324185 0.28763679 1.082 4285164400
-0.33057216 0.28710514 1.08 4285098604
-0.32882267 0.28737098 1.0810001 4285033063
-0.32706937 0.28763679 1.082 4284902247
-0.32561263 0.28816846 1.0840001 4284901742
-0.32414833 0.28870016 1.0860001 4284836212
-0.3223798 0.288966 1.087 4285033079
-0.32060745 0.28923184 1.0880001 4285165178
-0.31912413 0.28976348 1.09 4285099636
-0.31821492 0.29082686 1.0940001 4284771439
-0.31324491 0.28816846 1.0840001 4284310117
-0.3103224 0.28737098 1.0810001 4284836462
-0.308552 0.28763679 1.082 4284902003
-0.30621123 0.28737098 1.0810001 4284836212
-0.30415565 0.28737098 1.0810001 4284572781
-0.30210006 0.28737098 1.0810001 4284638825
-0.3005996 0.28790262 1.0830001 4284244315
-0.29854023 0.28790262 1.0830001 4285033314
-0.29648083 0.28790262 1.0830001 4289440681
-0.29442143 0.28790262 1.0830001 4289177511
-0.29263198 0.28816846 1.0840001 4288913826
-0.29083875 0.2884343 1.085 4289045412
-0.28957403 0.28923184 1.0880001 4289308584
-0.28750512 0.28923184 1.0880001 4289374379
-0.28569859 0.28949767 1.0890001 4289439402
-0.28388825 0.28976348 1.09 4289307816
-0.28181553 0.28976348 1.09 4289505195
-0.27974284 0.28976348 1.09 4289505195
-0.27767015 0.28976348 1.09 4289440172
-0.27559742 0.28976348 1.09 4289505965
-0.2737757 0.29002932 1.0910001 4289637551
-0.27195013 0.29029518 1.092 4289637551
-0.26987362 0.29029518 1.092 4289571756
-0.26804233 0.29056102 1.0930001 4289505963
-0.26596394 0.29056102 1.0930001 4289637035
-0.26388553 0.29056102 1.0930001 4289702828
-0.26156762 0.29029518 1.092 4289702828
-0.25972873 0.29056102 1.0930001 4289637035
-0.25765032 0.29056102 1.0930001 4289637035
-0.25580573 0.29082686 1.0940001 4289637035
-0.25372544 0.29082686 1.0940001 4289636781
-0.25187516 0.29109269 1.095 4289702574
-0.24979295 0.29109269 1.095 4289768367
-0.24771075 0.29109269 1.095 4289636781
-0.24562854 0.29109269 1.095 4289768367
-0.24354634 0.29109269 1.095 4289899953
-0.24146412 0.29109269 1.095 4289834160
-0.23938191 0.29109269 1.095 4289899953
-0.23729971 0.29109269 1.095 4289899953
-0.23543231 0.29135853 1.0960001 4289898924
-0.23356111 0.29162437 1.097 4289897382
-0.2314751 0.29162437 1.097 4289898663
-0.22959819 0.2918902 1.098 4289310376
-0.22730307 0.29162437 1.097 4288982951
-0.22501177 0.29135853 1.0960001 4288917413
-0.22272426 0.29109269 1.095 4289177249
-0.22023906 0.29056102 1.0930001 4290816168
-0.21776146 0.29002932 1.0910001 4291072667
-0.21529146 0.28949767 1.0890001 4285145135
-0.21322067 0.28949767 1.0890001 4285864492
-0.21095596 0.28923184 1.0880001 4286520882
-0.20888707 0.28923184 1.0880001 4286718260
-0.20681818 0.28923184 1.0880001 4286521908
-0.20456108 0.288966 1.087 4286128431
-0.20249408 0.288966 1.087 4285602600
-0.2004271 0.288966 1.087 4285667880
-0.1983601 0.288966 1.087 4285995305
-0.19647369 0.28923184 1.0880001 4286324783
-0.1942261 0.288966 1.087 4285735215
-0.19215912 0.288966 1.087 4284749861
-0.19009212 0.288966 1.087 4284289056
-0.18837109 0.28949767 1.0890001 4282647824
-0.18664244 0.29002932 1.0910001 4287193703
-0.184737 0.29029518 1.092 4288842378
-0.18282777 0.29056102 1.0930001 4287134070
-0.1810801 0.29109269 1.095 4288714901
-0.17883442 0.29082686 1.0940001 4289177763
-0.17659256 0.29056102 1.0930001 4289440683
-0.17451416 0.29056102 1.0930001 4290227638
-0.17227799 0.29029518 1.092 4289833911
-0.17004563 0.29002932 1.0910001 4289376957
-0.16766311 0.28949767 1.0890001 4287340721
-0.16544025 0.28923184 1.0880001 4280961384
-0.16307104 0.28870016 1.0860001 4280633456
-0.16085768 0.2884343 1.085 4280435818
-0.15879449 0.2884343 1.085 4281026414
-0.15658686 0.28816846 1.0840001 4280959079
-0.15210219 0.28364921 1.067 4287076272
-0.14641634 0.27673745 1.041 4287666841
-0.14540805 0.27859831 1.0480001 4287205227
-0.14190991 0.27567407 1.0370001 4288059722
-0.13872348 0.27328154 1.028 4288980537
-0.13610345 0.27195236 1.023 4289440048
-0.13402702 0.27168652 1.0220001 4289505065
-0.13156667 0.27062315 1.018 4289898802
-0.12950353 0.27035734 1.0170001 4290227254
-0.12744421 0.2700915 1.016 4290030386
-0.1253887 0.26982564 1.0150001 4289964336
-0.12345862 0.26982564 1.0150001 4290291769
-0.12140879 0.2695598 1.0140001 4290226753
-0.11959845 0.26982564 1.0150001 4289505602
-0.11790022 0.27035734 1.0170001 4287863873
-0.11642245 0.27142066 1.021 4285827396
-0.11459309 0.27168652 1.0220001 4283527238
-0.11287014 0.2722182 1.024 4283331689
-0.11092294 0.2722182 1.024 4282937982
-0.10865648 0.27142066 1.021 4283530131
-0.10661047 0.27115482 1.0200001 4283661718
-0.10436302 0.27035734 1.0170001 4284582041
-0.10212699 0.2695598 1.0140001 4285370781
-0.10009999 0.26929396 1.013 4285895582
-0.097882971 0.26849645 1.01 4286156962
-0.095677353 0.26769894 1.0070001 4286418604
-0.093669377 0.26743311 1.006 4286418091
-0.091665201 0.26716727 1.005 4286484387
-0.089843437 0.26743311 1.006 4286548636
-0.088017873 0.26769894 1.0070001 4286282897
-0.086103007 0.26769894 1.0070001 4285492613
-0.084271744 0.26796478 1.008 4285823632
-0.082436673 0.26823062 1.0090001 4285892248
-0.080518 0.26823062 1.0090001 4285566106
-0.078677222 0.26849645 1.01 4284975509
-0.077060632 0.2695598 1.0140001 4285237400
-0.07535474 0.27035734 1.0170001 4284973715
-0.073854014 0.27195236 1.023 4284446860
-0.072189882 0.27301571 1.0270001 4283722367
-0.070305377 0.27328154 1.028 4284248713
-0.068350576 0.27328154 1.028 4284577678
-0.066395774 0.27328154 1.028 4285366167
-0.064503655 0.27354738 1.029 4285497498
-0.062546946 0.27354738 1.029 4285301148
-0.060649127 0.27381322 1.0300001 4285302431
-0.058804478 0.27434489 1.0320001 4285106330
-0.05684207 0.27434489 1.0320001 4285434769
-0.054879662 0.27434489 1.0320001 4285630077
-0.0528147 0.27381322 1.0300001 4286154595
-0.050856095 0.27381322 1.0300001 4287598920
-0.048944961 0.27407905 1.031 4287926075
-0.0473946 0.27647161 1.0400001 4288057931
-0.045026563 0.28657344 1.0780001 4280363579
-0.042976685 0.28657344 1.0780001 4280300128
-0.041154597 0.28816846 1.0840001 4280235624
-0.039273623 0.28949767 1.0890001 4280235877
-0.037168663 0.28923184 1.0880001 4280958301
-0.035132028 0.28949767 1.0890001 4282864489
-0.03309159 0.28976348 1.09 4287205277
-0.031075805 0.29029518 1.092 4287204501
-0.029025858 0.29056102 1.0930001 4288322210
-0.026972109 0.29082686 1.0940001 4288454049
-0.024914555 0.29109269 1.095 4288519583
-0.022811498 0.29082686 1.0940001 4288980132
-0.020750141 0.29109269 1.095 4288848033
-0.018667934 0.29109269 1.095 4289242791
-0.016585726 0.29109269 1.095 4289111205
-0.01450352 0.29109269 1.095 4289242791
-0.012421313 0.29109269 1.095 4289374892
-0.010329664 0.29082686 1.0940001 4289177513
-0.0082644382 0.29135853 1.0960001 4289309097
-0.0061803292 0.29135853 1.0960001 4289506476
-0.0041074329 0.29215604 1.0990001 4289638573
-0.0020176191 0.29215604 1.0990001 4284704096
7.2325871e-05 0.29268771 1.1010001 4279900949
0.0021659427 0.29268771 1.1010001 4281151014
0.010616997 0.29481441 1.1090001 4280427294
0.012725827 0.29481441 1.1090001 4290164406
0.01470089 0.29215604 1.0990001 4289703855
0.016744869 0.29135853 1.0960001 4289440685
0.018828977 0.29135853 1.0960001 4289374892
0.020894006 0.29109269 1.095 4289375149
0.02295523 0.29082686 1.0940001 4289506735
0.025012651 0.29056102 1.0930001 4289440942
0.02706627 0.29029518 1.092 4289309356
0.029089399 0.28976348 1.09 4289309356
0.031133506 0.28949767 1.0890001 4289440942
0.033173814 0.28923184 1.0880001 4289310126
0.035275105 0.28949767 1.0890001 4289244846
0.037380192 0.28976348 1.09 4289178540
0.039452896 0.28976348 1.09 4289310126
0.04156369 0.29002932 1.0910001 4289375149
0.043598294 0.28976348 1.09 4289178024
0.045712892 0.29002932 1.0910001 4289704368
0.047831297 0.29029518 1.092 4287730574
0.0499078 0.29029518 1.092 4278321920
0.052031904 0.29056102 1.0930001 4279045640
0.062766604 0.29215604 1.0990001 4288454301
0.064443313 0.29029518 1.092 4289638321
0.066337079 0.28949767 1.0890001 4289440685
0.068470694 0.28976348 1.09 4289374892
0.070543393 0.28976348 1.09 4289374638
0.072616093 0.28976348 1.09 4289572017
0.074688792 0.28976348 1.09 4289506738
0.076831914 0.29002932 1.0910001 4289440945
0.078906514 0.29002932 1.0910001 4289375152
0.08090689 0.28976348 1.09 4289440945
0.08305572 0.29002932 1.0910001 4289375152
0.085130319 0.29002932 1.0910001 4289375152
0.087284848 0.29029518 1.092 4289244080
0.089279525 0.29002932 1.0910001 4289309873
0.091270387 0.28976348 1.09 4289310128
0.09325745 0.28949767 1.0890001 4289375921
0.095415786 0.28976348 1.09 4289375919
0.097577929 0.29002932 1.0910001 4289375919
0.099743858 0.29029518 1.092 4289506737
0.10182036 0.29029518 1.092 4289506738
0.10399202 0.29056102 1.0930001 4289440945
0.10607041 0.29056102 1.0930001 4289440945
0.10804987 0.29029518 1.092 4289440945
0.11002553 0.29002932 1.0910001 4289440945
0.11199738 0.28976348 1.09 4289440945
0.11396543 0.28949767 1.0890001 4289440945
0.11603623 0.28949767 1.0890001 4289572531
0.11821548 0.28976348 1.09 4289506738
0.12039854 0.29002932 1.0910001 4289440945
0.12247314 0.29002932 1.0910001 4289440945
0.1246619 0.29029518 1.092 4289440945
0.1267384 0.29029518 1.092 4289506738
0.12916879 0.29109269 1.095 4289506738
0.13113114 0.29082686 1.0940001 4289440945
0.13308968 0.29056102 1.0930001 4289440945
0.13516808 0.29056102 1.0930001 4289440945
0.13724647 0.29056102 1.0930001 4289440945
0.13932489 0.29056102 1.0930001 4289440945
0.14140329 0.29056102 1.0930001 4289572531
0.14348169 0.29056102 1.0930001 4289638324
0.14542693 0.29029518 1.092 4289704117
0.14736834 0.29002932 1.0910001 4289704117
0.14944294 0.29002932 1.0910001 4289769910
0.15151756 0.29002932 1.0910001 4289704117
0.15373294 0.29029518 1.092 4289572531
0.15580945 0.29029518 1.092 4289638324
0.15774135 0.29002932 1.0910001 4289704117
0.15981595 0.29002932 1.0910001 4289704117
0.16174217 0.28976348 1.09 4289638324
0.16351429 0.28923184 1.0880001 4289572531
0.16558319 0.28923184 1.0880001 4289704117
0.16749799 0.288966 1.087 4289704117
0.16972098 0.28923184 1.0880001 4289704117
0.17178988 0.28923184 1.0880001 4289704117
0.17385878 0.28923184 1.0880001 4289704117
0.17592767 0.28923184 1.0880001 4289769910
0.17799656 0.28923184 1.0880001 4289704631
0.18006547 0.28923184 1.0880001 4289770424
0.18213436 0.28923184 1.0880001 4289573300
0.18403396 0.288966 1.087 4289507505
0.18610096 0.288966 1.087 4289310126
0.18799484 0.28870016 1.0860001 4288717987
0.19093497 0.29002932 1.0910001 4288915620
-0.35916325 0.29237169 1.092 4285362295
-0.35577869 0.29130074 1.0880001 4285954434
-0.35338473 0.291033 1.087 4285954180
-0.35067132 0.29049751 1.085 4285888900
-0.34796557 0.28996202 1.0830001 4285230971
-0.34558678 0.28969431 1.082 4286481038
-0.34321177 0.28942657 1.0810001 4285428350
-0.34115618 0.28942657 1.0810001 4285164665
-0.3391006 0.28942657 1.0810001 4285888387
-0.33735681 0.28969431 1.082 4285362297
-0.33498943 0.28942657 1.0810001 4285757055
-0.33293384 0.28942657 1.0810001 4285558904
-0.33057216 0.28915882 1.08 4285822329
-0.32851848 0.28915882 1.08 4285625716
-0.32676709 0.28942657 1.0810001 4285757304
-0.32531229 0.28996202 1.0830001 4285691773
-0.32325289 0.28996202 1.0830001 4285494142
-0.32119349 0.28996202 1.0830001 4285230717
-0.31913412 0.28996202 1.0830001 4285230717
-0.31707472 0.28996202 1.0830001 4285165947
-0.31472445 0.28969431 1.082 4285165945
-0.31266698 0.28969431 1.082 4285100152
-0.3103224 0.28942657 1.0810001 4284836980
-0.30769646 0.28889105 1.079 4284704626
-0.30592796 0.28915882 1.08 4284836212
-0.30387428 0.28915882 1.08 4284638574
-0.30210006 0.28942657 1.0810001 4284573032
-0.30032206 0.28969431 1.082 4284244315
-0.29854023 0.28996202 1.0830001 4286480762
-0.29620707 0.28969431 1.082 4289638060
-0.29414958 0.28969431 1.082 4289440170
-0.29209208 0.28969431 1.082 4289440170
-0.29057071 0.29022977 1.0840001 4289242791
-0.28904173 0.29076526 1.0860001 4289308584
-0.28724089 0.291033 1.087 4289571756
-0.28543621 0.29130074 1.0880001 4289571242
-0.28336734 0.29130074 1.0880001 4289637035
-0.28129843 0.29130074 1.0880001 4289637035
-0.27948618 0.29156846 1.0890001 4289571242
-0.27741539 0.29156846 1.0890001 4289374377
-0.27534458 0.29156846 1.0890001 4289440172
-0.2732738 0.29156846 1.0890001 4289571758
-0.2717011 0.29210395 1.0910001 4289637551
-0.26962647 0.29210395 1.0910001 4289571756
-0.26779711 0.29237169 1.092 4289505963
-0.26572061 0.29237169 1.092 4289702828
-0.26364413 0.29237169 1.092 4289702828
-0.26156762 0.29237169 1.092 4289702828
-0.25949112 0.29237169 1.092 4289637035
-0.25741461 0.29237169 1.092 4289637035
-0.2553381 0.29237169 1.092 4289637035
-0.25349352 0.29263943 1.0930001 4289636781
-0.2514151 0.29263943 1.0930001 4289702574
-0.24933669 0.29263943 1.0930001 4289636781
-0.24725831 0.29263943 1.0930001 4289505195
-0.24517991 0.29263943 1.0930001 4289636781
-0.24310149 0.29263943 1.0930001 4289834160
-0.24102309 0.29263943 1.0930001 4289768367
-0.23916329 0.29290718 1.0940001 4289768367
-0.23708299 0.29290718 1.0940001 4289834160
-0.2352175 0.29317489 1.095 4289636522
-0.23334821 0.29344264 1.0960001 4290028968
-0.2312641 0.29344264 1.0960001 4289898663
-0.22917999 0.29344264 1.0960001 4289309608
-0.22709589 0.29344264 1.0960001 4288587936
-0.22480646 0.29317489 1.095 4289377709
-0.22252084 0.29290718 1.0940001 4289506727
-0.22003755 0.29237169 1.092 4289765022
-0.21756186 0.2918362 1.09 4291272869
-0.21489605 0.291033 1.087 4283964456
-0.21282907 0.291033 1.087 4284487205
-0.21056819 0.29076526 1.0860001 4285603889
-0.2083111 0.29049751 1.085 4285669167
-0.2062479 0.29049751 1.085 4285734960
-0.20399652 0.29022977 1.0840001 4285801266
-0.20193523 0.29022977 1.0840001 4285275691
-0.19987395 0.29022977 1.0840001 4285604656
-0.19799513 0.29049751 1.085 4285736242
-0.19593194 0.29049751 1.085 4284947754
-0.19386874 0.29049751 1.085 4283831326
-0.19180556 0.29049751 1.085 4283174425
-0.18974237 0.29049751 1.085 4283832870
-0.18802512 0.291033 1.087 4282914335
-0.18630029 0.29156846 1.0890001 4288117115
-0.18456784 0.29210395 1.0910001 4287790719
-0.18266051 0.29237169 1.092 4286936950
-0.18074937 0.29263943 1.0930001 4288846487
-0.17850749 0.29237169 1.092 4289308838
-0.17626943 0.29210395 1.0910001 4289045925
-0.17419483 0.29210395 1.0910001 4290031028
-0.17212023 0.29210395 1.0910001 4290031288
-0.16988976 0.2918362 1.09 4288850353
-0.16735518 0.291033 1.087 4286878883
-0.16513613 0.29076526 1.0860001 4283459714
-0.16277072 0.29022977 1.0840001 4283065477
-0.16056117 0.28996202 1.0830001 4281025894
-0.15850179 0.28996202 1.0830001 4280630366
-0.15629795 0.28969431 1.082 4281155681
-0.15181708 0.28514272 1.0650001 4287207595
-0.14641634 0.27871698 1.041 4287798679
-0.14443681 0.27871698 1.041 4287336811
-0.14177305 0.27737826 1.036 4287862856
-0.13858853 0.27496862 1.0270001 4288914746
-0.13583736 0.27336216 1.021 4289505841
-0.13363358 0.2728267 1.0190001 4289767465
-0.13130818 0.2720235 1.016 4289964334
-0.12912151 0.27148798 1.0140001 4290095922
-0.12706791 0.27122024 1.013 4289964334
-0.12514164 0.27122024 1.013 4289963823
-0.12333698 0.27148798 1.0140001 4290292022
-0.12128906 0.27122024 1.013 4289832247
-0.11936279 0.27122024 1.013 4289111101
-0.1177843 0.2720235 1.016 4287403581
-0.11630842 0.27309442 1.0200001 4284906809
-0.11448096 0.27336216 1.021 4282737980
-0.11287014 0.27416539 1.024 4283397482
-0.11081462 0.27389765 1.023 4282938236
-0.10865648 0.27336216 1.021 4283332752
-0.10661047 0.27309442 1.0200001 4283595411
-0.10436302 0.27229121 1.0170001 4284581529
-0.10212699 0.27148798 1.0140001 4285435806
-0.10000117 0.27095252 1.0120001 4285829024
-0.097786054 0.27014929 1.0090001 4286025124
-0.095677353 0.2696138 1.0070001 4286352557
-0.093669377 0.26934609 1.006 4286220971
-0.091665201 0.26907834 1.005 4286484646
-0.089843437 0.26934609 1.006 4286155420
-0.088017873 0.2696138 1.0070001 4286482075
-0.086188518 0.26988155 1.008 4286284183
-0.084271744 0.26988155 1.008 4286022807
-0.082436673 0.27014929 1.0090001 4285892761
-0.080518 0.27014929 1.0090001 4285566106
-0.078755118 0.27068478 1.011 4284777617
-0.077136628 0.27175573 1.0150001 4284842642
-0.075428829 0.27255896 1.018 4284513164
-0.073926203 0.27416539 1.024 4283986309
-0.072260179 0.27523637 1.028 4283328379
-0.070373766 0.27550408 1.029 4284117897
-0.068417065 0.27550408 1.029 4284446862
-0.066460356 0.27550408 1.029 4284972436
-0.064503655 0.27550408 1.029 4284840850
-0.062607728 0.27577183 1.0300001 4285104537
-0.060649127 0.27577183 1.0300001 4285039770
-0.0587475 0.27603957 1.031 4284974744
-0.056786992 0.27603957 1.031 4285303442
-0.054826483 0.27603957 1.031 4285367418
-0.0528147 0.27577183 1.0300001 4285760350
-0.05090547 0.27603957 1.031 4287467847
-0.048992433 0.27630728 1.0320001 4288124737
-0.047440171 0.27871698 1.041 4287992395
-0.044984799 0.28835559 1.077 4280363577
-0.042936817 0.28835559 1.077 4280825445
-0.041154597 0.29022977 1.0840001 4279971684
-0.039237563 0.29130074 1.0880001 4280432232
-0.037134502 0.291033 1.087 4281549411
-0.035099767 0.29130074 1.0880001 4284377469
-0.03309159 0.2918362 1.09 4287007382
-0.031075805 0.29237169 1.092 4287598487
-0.029025858 0.29263943 1.0930001 4288519843
-0.026972109 0.29290718 1.0940001 4288585635
-0.024914555 0.29317489 1.095 4288914341
-0.022832349 0.29317489 1.095 4289045925
-0.020731192 0.29290718 1.0940001 4288913826
-0.018650888 0.29290718 1.0940001 4289308584
-0.016570581 0.29290718 1.0940001 4289242791
-0.014490275 0.29290718 1.0940001 4288913826
-0.012409969 0.29290718 1.0940001 4289243306
-0.010329664 0.29290718 1.0940001 4289111720
-0.0082418164 0.29263943 1.0930001 4289045925
-0.0061690514 0.29290718 1.0940001 4289045925
-0.0040962202 0.29344264 1.0960001 4289967538
-0.0020176191 0.29424587 1.0990001 4287204232
7.2325871e-05 0.29478133 1.1010001 4281282603
0.0021659427 0.29478133 1.1010001 4282532669
0.014674136 0.29371038 1.097 4289374890
0.016714312 0.29290718 1.0940001 4289440685
0.018794619 0.29290718 1.0940001 4289374892
0.020874923 0.29290718 1.0940001 4289309356
0.02295523 0.29290718 1.0940001 4289375149
0.025012651 0.29263943 1.0930001 4289309356
0.02706627 0.29237169 1.092 4289177770
0.029089399 0.2918362 1.09 4289243563
0.031133506 0.29156846 1.0890001 4289375149
0.033173814 0.29130074 1.0880001 4289310126
0.03524271 0.29130074 1.0880001 4289244333
0.037345905 0.29156846 1.0890001 4289046954
0.039416701 0.29156846 1.0890001 4289441712
0.0414875 0.29156846 1.0890001 4289572528
0.043558296 0.29156846 1.0890001 4289111977
0.045629095 0.29156846 1.0890001 4289835954
0.047787495 0.29210395 1.0910001 4288914850
0.049953502 0.29263943 1.0930001 4281282603
0.052031904 0.29263943 1.0930001 4282269498
0.062766604 0.29424587 1.0990001 4289112231
0.064384304 0.29210395 1.0910001 4289572528
0.066276155 0.29130074 1.0880001 4289440685
0.068345055 0.29130074 1.0880001 4289374892
0.07047867 0.29156846 1.0890001 4289506224
0.07254947 0.29156846 1.0890001 4289703603
0.074620269 0.29156846 1.0890001 4289638324
0.076691069 0.29156846 1.0890001 4289440945
0.078761861 0.29156846 1.0890001 4289375152
0.08083266 0.29156846 1.0890001 4289506738
0.08290346 0.29156846 1.0890001 4289440945
0.085052289 0.2918362 1.09 4289440945
0.087124988 0.2918362 1.09 4289440945
0.089115851 0.29156846 1.0890001 4289309873
0.091102913 0.29130074 1.0880001 4289440944
0.093171813 0.29130074 1.0880001 4289310128
0.095240712 0.29130074 1.0880001 4289506735
