# .PCD v0.7 - Point Cloud Data file format
VERSION 0.7
FIELDS x y z intensity
SIZE 4 4 4 4
TYPE F F F F
COUNT 1 1 1 1
WIDTH 1051
HEIGHT 1
VIEWPOINT 0 0 0 1 0 0 0
POINTS 1051
DATA ascii
-0.10918422 0.063180014 1.1410685 0.065584481
-0.10904728 0.066868611 1.1366986 0.065584481
-0.11692578 0.069744185 1.1332918 0.065584481
-0.1251311 0.069744192 1.133292 0.065584481
-0.11599842 0.07733126 1.1243036 0.065584481
-0.11655273 0.081079856 1.1198626 0.065584481
-0.11646025 0.073552817 1.1287796 0.065584481
-0.12413866 0.077331275 1.1243036 0.065584481
-0.12409969 0.080946513 1.1200206 0.065584481
-0.1246329 0.073552832 1.1287798 0.065584481
-0.11632631 0.062809601 1.1415074 0.065584481
-0.11727726 0.066868611 1.1366986 0.065584481
-0.11615115 0.059112638 1.1458871 0.065584481
-0.12394705 0.063003637 1.1412774 0.065584481
-0.1244785 0.066868611 1.1366986 0.065584481
-0.12444766 0.059112638 1.1458871 0.065584481
-0.14817177 0.055005752 1.1507528 0.065584481
-0.13333642 0.069744192 1.133292 0.065584481
-0.14108154 0.069880761 1.1331303 0.065584481
-0.1322789 0.077331282 1.1243036 0.065584481
-0.13175641 0.081079863 1.1198626 0.065584481
-0.13280557 0.073552839 1.1287799 0.065584481
-0.14041916 0.077331282 1.1243036 0.065584481
-0.1398645 0.081079863 1.1198626 0.065584481
-0.14097822 0.073552839 1.12878 0.065584481
-0.13221018 0.063003637 1.1412774 0.065584481
-0.13167974 0.066868618 1.1366987 0.065584481
-0.13274419 0.059112646 1.1458871 0.065584481
-0.14047332 0.063003637 1.1412776 0.065584481
-0.13990973 0.066868618 1.1366987 0.065584481
-0.1410407 0.059112646 1.1458873 0.065584481
-0.14815596 0.06960763 1.133454 0.065584481
-0.14855939 0.077331282 1.1243036 0.065584481
-0.1479726 0.081079863 1.1198626 0.065584481
-0.14915088 0.073552839 1.12878 0.065584481
-0.14873646 0.063003637 1.1412776 0.065584481
-0.14813973 0.066868626 1.1366988 0.065584481
-0.14933723 0.059112653 1.1458874 0.065584481
-0.11688896 0.11786059 1.0762881 0.13073842
-0.12468156 0.11786059 1.0762882 0.13073842
-0.11617994 0.11104463 1.0843632 0.13073842
-0.11682595 0.10296047 1.0939404 0.13073842
-0.11626466 0.10739701 1.0886846 0.13073842
-0.12465274 0.11091021 1.0845225 0.13073842
-0.12474637 0.10296047 1.0939404 0.13073842
-0.12414701 0.10739701 1.0886846 0.13073842
-0.11623644 0.095779166 1.1024481 0.13073842
-0.12447526 0.095832586 1.102385 0.13073842
-0.12456844 0.08940538 1.1099994 0.13073842
-0.11733411 0.11440075 1.0803871 0.13073842
-0.12515639 0.11440075 1.0803871 0.13073842
-0.13247417 0.11786059 1.0762883 0.13073842
-0.14026676 0.11786059 1.0762883 0.13073842
-0.13283207 0.11091004 1.0845227 0.13073842
-0.13266677 0.10296047 1.0939404 0.13073842
-0.13202935 0.10739701 1.0886846 0.13073842
-0.14098248 0.11077528 1.0846825 0.13073842
-0.14058718 0.10296047 1.0939406 0.13073842
-0.13991171 0.10739702 1.0886846 0.13073842
-0.13269885 0.095779166 1.1024483 0.13073842
-0.13260514 0.08940538 1.1099995 0.13073842
-0.14068083 0.095779166 1.1024483 0.13073842
-0.14064179 0.08940538 1.1099995 0.13073842
-0.14866288 0.095779166 1.1024483 0.13073842
-0.14867847 0.089405388 1.1099995 0.13073842
-0.13297866 0.11440075 1.0803871 0.13073842
-0.14080094 0.11440076 1.0803871 0.13073842
-0.51677543 0.22036411 0.95485413 0.065584481
-0.51679033 0.21702978 0.95880437 0.065584481
-0.524553 0.22036412 0.95485413 0.065584481
-0.52466047 0.21275198 0.96387225 0.065584481
-0.52460217 0.2168777 0.95898461 0.065584481
-0.53233063 0.22036412 0.95485419 0.065584481
-0.53250784 0.21290562 0.96369022 0.065584481
-0.53240979 0.21702978 0.95880443 0.065584481
-0.5401082 0.22036412 0.95485419 0.065584481
-0.54036248 0.21275198 0.96387225 0.065584481
-0.54044867 0.21698964 0.95885205 0.065584481
-0.51675737 0.2244107 0.95006013 0.065584481
-0.52449584 0.2244111 0.95005971 0.065584481
-0.54060292 0.23107363 0.94216651 0.065584481
-0.53257829 0.22441088 0.95005995 0.065584481
-0.5408327 0.22441074 0.95006025 0.065584481
-0.54874992 0.22036412 0.95485419 0.065584481
-0.54820698 0.21290563 0.96369034 0.065584481
-0.54867661 0.2168458 0.9590224 0.065584481
-0.55393487 0.22036412 0.95485419 0.065584481
-0.55507731 0.21668001 0.95921886 0.065584481
-0.54612976 0.23033912 0.94303679 0.065584481
-0.54827988 0.22420974 0.95029831 0.065584481
-0.55300367 0.2217191 0.95324898 0.065584481
-0.53259218 0.20935602 0.96789533 0.065584481
-0.54047596 0.20935629 0.96789515 0.065584481
-0.50059128 0.26096368 0.90675581 0.065584481
-0.50879776 0.26096368 0.90675581 0.065584481
-0.50077045 0.2718181 0.89389664 0.065584481
-0.50058001 0.26522034 0.90171301 0.065584481
-0.50886053 0.2718181 0.89389664 0.065584481
-0.50874078 0.26522034 0.90171301 0.065584481
-0.50046927 0.25354868 0.9155401 0.065584481
-0.5005306 0.25727206 0.91112918 0.065584481
-0.50055677 0.25041568 0.91925204 0.065584481
-0.50875521 0.25354868 0.9155401 0.065584481
-0.50877655 0.25727206 0.91112918 0.065584481
-0.50887626 0.25041568 0.91925204 0.065584481
-0.51424652 0.27733186 0.88736469 0.065584481
-0.51659447 0.26089567 0.90683639 0.065584481
-0.52356994 0.26096368 0.90675581 0.065584481
-0.51609093 0.27153388 0.89423329 0.065584481
-0.51657516 0.2652202 0.90171325 0.065584481
-0.52061999 0.26883811 0.89742708 0.065584481
-0.52229548 0.26467034 0.90236467 0.065584481
-0.51662749 0.25347936 0.91562229 0.065584481
-0.51661086 0.2572034 0.9112106 0.065584481
-0.5166412 0.25041577 0.91925186 0.065584481
-0.52449912 0.25354868 0.9155401 0.065584481
-0.52444464 0.25727206 0.91112918 0.065584481
-0.53029931 0.25354868 0.91554022 0.065584481
-0.52941823 0.25603625 0.91259325 0.065584481
-0.50871259 0.24598651 0.92449915 0.065584481
-0.50871223 0.23107342 0.94216681 0.065584481
-0.50866854 0.23827715 0.93363249 0.065584481
-0.50869066 0.24215288 0.92904079 0.065584481
-0.50822532 0.2350224 0.93748838 0.065584481
-0.51666057 0.24605721 0.92441529 0.065584481
-0.52460927 0.24598658 0.92449915 0.065584481
-0.53256011 0.24591595 0.92458278 0.065584481
-0.53719962 0.24471426 0.92600644 0.065584481
-0.51672751 0.23107362 0.94216651 0.065584481
-0.52440184 0.23107323 0.94216704 0.065584481
-0.51669508 0.23834926 0.93354702 0.065584481
-0.51667774 0.24222429 0.92895633 0.065584481
-0.51670992 0.2350224 0.93748838 0.065584481
-0.52472228 0.23827715 0.93363249 0.065584481
-0.52466547 0.24215293 0.92904091 0.065584481
-0.52434599 0.23502241 0.93748832 0.065584481
-0.53258765 0.23107344 0.94216681 0.065584481
-0.53275162 0.23820506 0.93371785 0.065584481
-0.53265524 0.24208154 0.92912549 0.065584481
-0.53198218 0.23502246 0.93748844 0.065584481
-0.53957719 0.23809181 0.93385208 0.065584481
-0.5381192 0.24215293 0.92904091 0.065584481
-0.54046679 0.23502246 0.93748844 0.065584481
-0.52440602 0.25041568 0.9192521 0.065584481
-0.53137022 0.25028986 0.91940117 0.065584481
-0.58848387 0.15019637 1.0379823 0.065584458
-0.59669542 0.15042678 1.0377092 0.065584458
-0.6021167 0.14916359 1.0392059 0.065584458
-0.59534717 0.15709363 1.0298113 0.065584458
-0.59374779 0.16176054 1.0242822 0.065584458
-0.5965482 0.15427971 1.0331448 0.065584458
-0.58863425 0.1373582 1.0531919 0.065584458
-0.59674436 0.13726647 1.0533006 0.065584458
-0.60461771 0.13731523 1.0532428 0.065584458
-0.58074117 0.1437763 1.0455884 0.065584458
-0.58855808 0.143824 1.0455317 0.065584458
-0.5963738 0.14387205 1.0454749 0.065584458
-0.60402203 0.14344411 1.0459819 0.065584458
-0.55685884 0.18048032 1.0021048 0.065584473
-0.5566712 0.18411559 0.99779797 0.065584473
-0.56411433 0.18048032 1.0021048 0.065584473
-0.57227683 0.18048032 1.0021048 0.065584473
-0.56478834 0.18428023 0.99760288 0.065584473
-0.57270384 0.18424165 0.99764872 0.065584473
-0.55668682 0.16594957 1.0193194 0.065584473
-0.5645234 0.16603547 1.0192176 0.065584473
-0.55633324 0.17293914 1.0110388 0.065584473
-0.55659652 0.17672279 1.0065563 0.065584473
-0.55648786 0.16988291 1.0146596 0.065584473
-0.56456852 0.17293915 1.0110389 0.065584473
-0.56455702 0.17667891 1.0066082 0.065584473
-0.56475258 0.16988322 1.0146592 0.065584473
-0.57280374 0.17293915 1.0110389 0.065584473
-0.57254529 0.17663935 1.0066552 0.065584473
-0.57272595 0.17000088 1.0145199 0.065584473
-0.57953233 0.18048032 1.0021048 0.065584473
-0.5782665 0.18345664 0.99857885 0.065584473
-0.5801239 0.17293915 1.0110389 0.065584473
-0.58052778 0.17667893 1.0066082 0.065584473
-0.58065498 0.1697651 1.0147992 0.065584473
-0.58561403 0.17293915 1.0110389 0.065584473
-0.5854851 0.17445812 1.0092393 0.065584473
-0.5871532 0.16969161 1.0148864 0.065584473
-0.55654407 0.15019637 1.0379822 0.065584481
-0.55649585 0.15744415 1.0293957 0.065584481
-0.55687886 0.16215099 1.0238197 0.065584481
-0.55634189 0.15427968 1.0331447 0.065584481
-0.57235777 0.16612139 1.0191159 0.065584481
-0.56452423 0.15028545 1.0378767 0.065584481
-0.5725019 0.15037455 1.0377711 0.065584481
-0.56457001 0.157444 1.0293958 0.065584481
-0.56460053 0.16215087 1.0238199 0.065584481
-0.56475717 0.15427968 1.0331447 0.065584481
-0.57264417 0.15744415 1.0293957 0.065584481
-0.57263094 0.16215074 1.02382 0.065584481
-0.57223743 0.15427969 1.0331447 0.065584481
-0.55638587 0.14382397 1.0455316 0.065584481
-0.56443465 0.14373356 1.0456387 0.065584481
-0.57271302 0.14396738 1.0453618 0.065584481
-0.5806722 0.1659496 1.0193197 0.065584481
-0.58850652 0.1660355 1.0192178 0.065584481
-0.58049166 0.15028547 1.0378767 0.065584481
-0.58040786 0.15744431 1.0293956 0.065584481
-0.58066136 0.16215087 1.0238199 0.065584481
-0.58065271 0.15427971 1.0331448 0.065584481
-0.58849484 0.15756544 1.0292524 0.065584481
-0.58838296 0.16215102 1.0238198 0.065584481
-0.58906794 0.15427971 1.0331448 0.065584481
-0.55606455 0.21275198 0.96387225 0.065584481
-0.5482626 0.19081193 0.98986495 0.065584481
-0.55632532 0.19081149 0.98986548 0.065584481
-0.5643881 0.19081198 0.98986512 0.065584481
-0.57186633 0.19042778 0.99032032 0.065584481
-0.54851389 0.20577765 0.97213489 0.065584481
-0.54884696 0.19804491 0.98129594 0.065584481
-0.54866266 0.20232335 0.9762271 0.065584481
-0.55642396 0.20593393 0.97194982 0.065584481
-0.55683988 0.19804516 0.98129565 0.065584481
-0.55661434 0.20232311 0.9762274 0.065584481
-0.54835981 0.2093561 0.96789539 0.065584481
-0.55655062 0.20945586 0.96777719 0.065584481
-0.5489707 0.19516979 0.98470205 0.065584481
-0.5569914 0.19516979 0.98470199 0.065584481
-0.56259471 0.20571515 0.9722091 0.065584481
-0.56483281 0.19804491 0.981296 0.065584481
-0.56401229 0.20219432 0.97637999 0.065584481
-0.5697667 0.19732873 0.98214447 0.065584481
-0.56155449 0.20842649 0.96899682 0.065584481
-0.5650121 0.19516981 0.98470211 0.065584481
-0.57035929 0.19516982 0.98470217 0.065584481
-0.50879115 0.18048027 1.0021045 0.065584481
-0.50881082 0.18428019 0.99760288 0.065584481
-0.50871587 0.16594952 1.0193191 0.065584481
-0.50875205 0.17293911 1.0110387 0.065584481
-0.50877118 0.17663926 1.0066551 0.065584481
-0.50873625 0.16988286 1.0146592 0.065584481
-0.51695353 0.18048027 1.0021045 0.065584481
-0.52420902 0.18048027 1.0021045 0.065584481
-0.51693726 0.18411554 0.99779785 0.065584481
-0.52461249 0.18419787 0.99770051 0.065584481
-0.53237152 0.18048029 1.0021045 0.065584481
-0.54053396 0.1804803 1.0021046 0.065584481
-0.53228533 0.18428022 0.99760288 0.065584481
-0.54041642 0.18411556 0.99779785 0.065584481
-0.51655728 0.16603543 1.0192175 0.065584481
-0.52439642 0.16612138 1.0191157 0.065584481
-0.51607221 0.17293911 1.0110387 0.065584481
-0.51651525 0.17672308 1.0065557 0.065584481
-0.51669484 0.16988301 1.014659 0.065584481
-0.52430743 0.17293911 1.0110387 0.065584481
-0.52425694 0.17680687 1.0064566 0.065584481
-0.52434731 0.16988315 1.0146588 0.065584481
-0.53254271 0.17293912 1.0110388 0.065584481
-0.53245866 0.17663929 1.0066552 0.065584481
-0.53261209 0.16988289 1.0146595 0.065584481
-0.54077786 0.17293914 1.0110388 0.065584481
-0.54065281 0.17680687 1.0064567 0.065584481
-0.54087669 0.16988318 1.0146592 0.065584481
-0.5486964 0.1804803 1.0021046 0.065584481
-0.54853678 0.18428022 0.99760288 0.065584481
-0.54901308 0.17293914 1.0110388 0.065584481
-0.54863739 0.17676762 1.0065031 0.065584481
-0.54852921 0.16988306 1.0146594 0.065584481
-0.51661837 0.15028542 1.0378766 0.065584473
-0.52460408 0.15019636 1.0379821 0.065584473
-0.51674598 0.15744413 1.0293955 0.065584473
-0.5164178 0.16215082 1.0238196 0.065584473
-0.51613557 0.15427965 1.0331445 0.065584473
-0.52450967 0.1574443 1.0293953 0.065584473
-0.52444816 0.1621507 1.0238196 0.065584473
-0.52455086 0.15427966 1.0331446 0.065584473
-0.53270131 0.16594955 1.0193193 0.065584473
-0.54054034 0.16603547 1.0192175 0.065584473
-0.53258759 0.15028544 1.0378766 0.065584473
-0.54056847 0.15037453 1.0377711 0.065584473
-0.53260434 0.15756541 1.0292519 0.065584473
-0.5327875 0.16215096 1.0238194 0.065584473
-0.53296614 0.15427966 1.0331446 0.065584473
-0.54063737 0.15732272 1.0295393 0.065584473
-0.54050905 0.16215082 1.0238198 0.065584473
-0.5404464 0.15427966 1.0331446 0.065584473
-0.54837704 0.16612138 1.0191157 0.065584473
-0.54855502 0.15028545 1.0378766 0.065584473
-0.54873216 0.1574443 1.0293955 0.065584473
-0.54853958 0.16215071 1.02382 0.065584473
-0.54792666 0.15427968 1.0331447 0.065584473
-0.51664382 0.14382394 1.0455315 0.065584473
-0.52468848 0.14373356 1.0456386 0.065584473
-0.53273076 0.14382395 1.0455316 0.065584473
-0.540546 0.14396738 1.0453616 0.065584473
-0.5485673 0.1437763 1.0455881 0.065584473
-0.50884461 0.19081193 0.98986459 0.065584481
-0.50892311 0.20593391 0.97194958 0.065584481
-0.50888211 0.19804512 0.98129535 0.065584481
-0.5089044 0.20232309 0.97622734 0.065584481
-0.50894082 0.20935628 0.96789497 0.065584481
-0.5088672 0.19516975 0.98470181 0.065584481
-0.51680875 0.21290562 0.96369022 0.065584481
-0.51690745 0.19081149 0.98986542 0.065584481
-0.52497017 0.19081193 0.98986489 0.065584481
-0.53268784 0.19095039 0.98970097 0.065584481
-0.54036641 0.19067912 0.99002224 0.065584481
-0.51684064 0.20577763 0.97213483 0.065584481
-0.51687515 0.1980449 0.98129565 0.065584481
-0.51685596 0.20232333 0.97622705 0.065584481
-0.52475667 0.20593391 0.97194958 0.065584481
-0.52486807 0.19804515 0.98129547 0.065584481
-0.52480769 0.20232309 0.97622734 0.065584481
-0.5168246 0.20935602 0.96789533 0.065584481
-0.52470839 0.20935628 0.96789509 0.065584481
-0.51688796 0.19516976 0.98470193 0.065584481
-0.52490866 0.19516976 0.98470193 0.065584481
-0.53267723 0.20577765 0.97213483 0.065584481
-0.53286105 0.1980449 0.9812957 0.065584481
-0.53275931 0.20232335 0.9762271 0.065584481
-0.54059035 0.20593393 0.9719497 0.065584481
-0.54085398 0.19804515 0.98129547 0.065584481
-0.54071105 0.20232309 0.9762274 0.065584481
-0.53292936 0.19516976 0.98470193 0.065584481
-0.54095006 0.19516978 0.98470199 0.065584481
-0.46098974 0.21290559 0.96368992 0.065584481
-0.46838164 0.22036405 0.95485389 0.065584481
-0.46883091 0.21275195 0.96387208 0.065584481
-0.46862635 0.21695368 0.95889413 0.065584481
-0.47615919 0.22036406 0.95485401 0.065584481
-0.47668886 0.21290559 0.9636901 0.065584481
-0.47687387 0.21702977 0.95880413 0.065584481
-0.46860653 0.22441064 0.95005965 0.065584481
-0.47652721 0.22429399 0.95019799 0.065584481
-0.48480096 0.22036406 0.95485401 0.065584481
-0.48453295 0.21275195 0.96387208 0.065584481
-0.48467815 0.21687767 0.95898426 0.065584481
-0.49257851 0.22036408 0.95485401 0.065584481
-0.49238798 0.2129056 0.9636901 0.065584481
-0.49249336 0.21702977 0.95880413 0.065584481
-0.50035608 0.22036409 0.95485401 0.065584481
-0.50023502 0.21275197 0.96387219 0.065584481
-0.50030065 0.21687768 0.95898449 0.065584481
-0.50899792 0.22036412 0.95485413 0.065584481
-0.50852299 0.21282879 0.96378118 0.065584481
-0.50854659 0.21695372 0.95889443 0.065584481
-0.4845897 0.22452301 0.94992667 0.065584481
-0.49268192 0.22441068 0.95006007 0.065584481
-0.50052637 0.23107322 0.94216704 0.065584481
-0.50042039 0.22441107 0.95005953 0.065584481
-0.5085029 0.22441088 0.95005989 0.065584481
-0.48441336 0.20935625 0.96789491 0.065584481
-0.49229723 0.20935602 0.96789515 0.065584481
-0.50076503 0.20935613 0.96789509 0.065584481
-0.41221038 0.22036402 0.95485371 0.065584481
-0.41257516 0.21282871 0.9637807 0.065584481
-0.41266033 0.21702965 0.95880389 0.065584481
-0.41254562 0.22452767 0.94992101 0.065584481
-0.42085204 0.220364 0.95485365 0.065584481
-0.42086989 0.21290551 0.9636898 0.065584481
-0.42045268 0.21687758 0.95898414 0.065584481
-0.42862964 0.22036403 0.95485377 0.065584481
-0.42870346 0.21275188 0.96387172 0.065584481
-0.42849708 0.21691748 0.95893687 0.065584481
-0.43640718 0.22036405 0.95485383 0.065584481
-0.43656898 0.21290556 0.9636898 0.065584481
-0.43651691 0.21695387 0.95889378 0.065584481
-0.4450489 0.22036405 0.95485383 0.065584481
-0.44440553 0.21275194 0.96387184 0.065584481
-0.44453597 0.21698955 0.95885158 0.065584481
-0.42045575 0.22441062 0.95005953 0.065584481
-0.42854133 0.22429903 0.9501918 0.065584481
-0.43657458 0.23107356 0.94216633 0.065584481
-0.44442192 0.2310182 0.94223189 0.065584481
-0.43661746 0.22452767 0.94992101 0.065584481
-0.44453111 0.22441064 0.95005965 0.065584481
-0.4528265 0.22036405 0.95485389 0.065584481
-0.4526988 0.21282876 0.96378088 0.065584481
-0.45257691 0.21702969 0.95880401 0.065584481
-0.46060404 0.22036405 0.95485389 0.065584481
-0.46037662 0.21687762 0.95898414 0.065584481
-0.45260251 0.23112832 0.94210142 0.065584481
-0.45262003 0.22429903 0.95019192 0.065584481
-0.46068934 0.22452767 0.94992101 0.065584481
-0.44442344 0.20925654 0.96801287 0.065584481
-0.45257327 0.20945577 0.96777683 0.065584481
-0.46067804 0.30098212 0.85934657 0.065584481
-0.46052796 0.29711303 0.86393011 0.065584481
-0.46845531 0.30098212 0.85934657 0.065584481
-0.46854722 0.29703361 0.86402428 0.065584481
-0.47623274 0.30098212 0.85934657 0.065584481
-0.4845286 0.30098212 0.85934663 0.065584481
-0.49282438 0.30098212 0.85934651 0.065584481
-0.49805695 0.30076236 0.85960692 0.065584481
-0.4609727 0.30859774 0.85032451 0.065584481
-0.46060663 0.31244063 0.84577197 0.065584481
-0.46866837 0.30859774 0.85032451 0.065584481
-0.46864849 0.31225473 0.84599227 0.065584481
-0.47636405 0.30859771 0.85032451 0.065584481
-0.47667786 0.31237423 0.84585065 0.065584481
-0.46856749 0.31919646 0.83776838 0.065584481
-0.47658777 0.31910902 0.83787197 0.065584481
-0.46043354 0.30526716 0.8542704 0.065584481
-0.46861559 0.30543125 0.85407561 0.065584481
-0.47666132 0.30535081 0.85417098 0.065584481
-0.48405975 0.30859771 0.85032451 0.065584481
-0.48459476 0.31234077 0.84589022 0.065584481
-0.4909859 0.30859771 0.85032451 0.065584481
-0.49018726 0.31163064 0.8467316 0.065584481
-0.48377007 0.31880009 0.83823782 0.065584481
-0.48239741 0.32335702 0.83283955 0.065584481
-0.48455098 0.30530912 0.85422033 0.065584481
-0.49230108 0.30526045 0.85427809 0.065584481
-0.49702132 0.30317527 0.85674852 0.065584481
-0.41245842 0.30098212 0.85934657 0.065584473
-0.42050284 0.30091342 0.85942799 0.065584473
-0.428783 0.30105081 0.85926521 0.065584473
-0.43682745 0.30098212 0.85934657 0.065584473
-0.44460484 0.30098212 0.85934657 0.065584473
-0.4526414 0.30098221 0.85934651 0.065584473
-0.41248974 0.30859777 0.85032457 0.065584473
-0.41250417 0.31239238 0.84582949 0.065584473
-0.41267663 0.31916878 0.83780122 0.065584473
-0.4124988 0.30526716 0.8542704 0.065584473
-0.42095503 0.30859774 0.85032451 0.065584473
-0.42054695 0.31230766 0.84592986 0.065584473
-0.42865071 0.30859774 0.85032451 0.065584473
-0.42858335 0.31242654 0.84578902 0.065584473
-0.42069241 0.31916741 0.83780283 0.065584473
-0.42860153 0.31930915 0.83763486 0.065584473
-0.43634644 0.30859774 0.85032451 0.065584473
-0.43661705 0.3122409 0.8460089 0.065584473
-0.44404212 0.30859774 0.85032451 0.065584473
-0.44465518 0.31239235 0.84582925 0.065584473
-0.43661457 0.31913996 0.83783531 0.065584473
-0.4446308 0.31916785 0.83780229 0.065584473
-0.44471011 0.32335702 0.83283955 0.065584473
-0.42053875 0.30535096 0.85417116 0.065584473
-0.42857602 0.30543426 0.85407251 0.065584473
-0.4366191 0.30530912 0.85422069 0.065584473
-0.44465536 0.30539265 0.85412174 0.065584473
-0.45250741 0.30859777 0.85032457 0.065584473
-0.45257306 0.31228927 0.84595126 0.065584473
-0.45264599 0.31919655 0.83776832 0.065584473
-0.45254219 0.30535081 0.85417128 0.065584473
-0.46038046 0.26096368 0.90675581 0.065584481
-0.46045038 0.27187955 0.89382374 0.065584481
-0.46075544 0.26522034 0.90171301 0.065584481
-0.46069688 0.25354868 0.91554034 0.065584481
-0.46053308 0.25720343 0.9112106 0.065584481
-0.46062312 0.25041568 0.91925204 0.065584481
-0.46858692 0.26096368 0.90675581 0.065584481
-0.47679329 0.26096368 0.90675581 0.065584481
-0.46841022 0.2718181 0.89389664 0.065584481
-0.46876124 0.26511964 0.90183234 0.065584481
-0.47650033 0.2718181 0.89389664 0.065584481
-0.47658846 0.2652202 0.90171319 0.065584481
-0.46856487 0.25347936 0.91562241 0.065584481
-0.46837181 0.25727206 0.91112918 0.065584481
-0.46868041 0.25032589 0.91935837 0.065584481
-0.47644076 0.25354868 0.91554034 0.065584481
-0.47661781 0.25727206 0.91112918 0.065584481
-0.48459163 0.26103169 0.90667522 0.065584481
-0.49238491 0.26096368 0.90675581 0.065584481
-0.48459041 0.2718181 0.89389664 0.065584481
-0.48441234 0.2653214 0.90159339 0.065584481
-0.49268046 0.2718181 0.89389664 0.065584481
-0.49241924 0.26522034 0.90171301 0.065584481
-0.48472673 0.25354868 0.91554034 0.065584481
-0.48466748 0.25723943 0.91116786 0.065584481
-0.49259984 0.253618 0.91545802 0.065584481
-0.49248299 0.25736976 0.91101354 0.065584481
-0.46059725 0.24591583 0.92458278 0.065584481
-0.46855101 0.24598651 0.92449915 0.065584481
-0.47650263 0.2460572 0.92441529 0.065584481
-0.46062821 0.23095846 0.94230264 0.065584481
-0.46071213 0.23837966 0.93351084 0.065584481
-0.46033886 0.24208151 0.92912537 0.065584481
-0.46071172 0.23502235 0.93748808 0.065584481
-0.4686282 0.23118366 0.94203591 0.065584481
-0.47665101 0.23107317 0.94216686 0.065584481
-0.46852812 0.23820502 0.93371773 0.065584481
-0.46833175 0.24215288 0.92904079 0.065584481
-0.46834779 0.23502235 0.93748808 0.065584481
-0.47655973 0.23827711 0.93363237 0.065584481
-0.47673988 0.24215288 0.92904073 0.065584481
-0.47598395 0.23502238 0.9374882 0.065584481
-0.48444763 0.24598651 0.92449915 0.065584481
-0.4926143 0.24588618 0.92461789 0.065584481
-0.50054443 0.24601988 0.92445958 0.065584481
-0.48450705 0.23095846 0.9423027 0.065584481
-0.49250022 0.23118369 0.94203591 0.065584481
-0.48458925 0.2383492 0.93354702 0.065584481
-0.48472977 0.24222428 0.92895603 0.065584481
-0.48446852 0.23502238 0.9374882 0.065584481
-0.49261346 0.23827712 0.93363249 0.065584481
-0.49271455 0.24215288 0.92904079 0.065584481
-0.49295306 0.23502238 0.9374882 0.065584481
-0.5006398 0.23820503 0.93371785 0.065584481
-0.50070143 0.24208151 0.92912537 0.065584481
-0.50058925 0.2350224 0.9374882 0.065584481
-0.47641501 0.2505056 0.91914552 0.065584481
-0.48447239 0.25041568 0.91925204 0.065584481
-0.49251458 0.25041559 0.9192521 0.065584481
-0.46063912 0.2932044 0.86856085 0.065584481
-0.46050796 0.2858302 0.87729704 0.065584481
-0.46081558 0.27888831 0.88552094 0.065584481
-0.46092299 0.28981972 0.87257046 0.065584481
-0.46876186 0.29320431 0.86856091 0.065584481
-0.47662261 0.29320431 0.86856091 0.065584481
-0.47674483 0.29713956 0.86389869 0.065584481
-0.46844774 0.2858302 0.87729704 0.065584481
-0.46882984 0.27888831 0.88552094 0.065584481
-0.46787533 0.28295699 0.88070089 0.065584481
-0.4763875 0.2858302 0.87729704 0.065584481
-0.4768441 0.27888831 0.88552094 0.065584481
-0.47584596 0.28295699 0.88070089 0.065584481
-0.46882001 0.28981972 0.87257046 0.065584481
-0.47671705 0.28981972 0.87257046 0.065584481
-0.48448339 0.29320431 0.86856091 0.065584481
-0.48476696 0.297113 0.86393011 0.065584481
-0.49234417 0.29320431 0.86856091 0.065584481
-0.49258584 0.297113 0.86393011 0.065584481
-0.48432732 0.2858302 0.87729704 0.065584481
-0.4848583 0.27888831 0.88552094 0.065584481
-0.48381656 0.28295699 0.88070089 0.065584481
-0.49226713 0.2858302 0.87729704 0.065584481
-0.49287257 0.27888831 0.88552088 0.065584481
-0.49258426 0.28295699 0.88070089 0.065584481
-0.4846141 0.28981969 0.87257046 0.065584481
-0.49251115 0.28981969 0.8725704 0.065584481
-0.50020492 0.29320431 0.86856091 0.065584481
-0.49928522 0.29695421 0.86411822 0.065584481
-0.50464618 0.2920807 0.869892 0.065584481
-0.50041455 0.28580299 0.87732923 0.065584481
-0.50088674 0.27888831 0.88552088 0.065584481
-0.50135195 0.28295699 0.88070089 0.065584481
-0.50719976 0.28569788 0.87745374 0.065584481
-0.50890094 0.27888831 0.88552088 0.065584481
-0.50852549 0.28295699 0.88070083 0.065584481
-0.50040811 0.28981969 0.8725704 0.065584481
-0.5057236 0.28959307 0.87283897 0.065584481
-0.41278321 0.26096368 0.90675604 0.065584481
-0.41258946 0.27181855 0.8938961 0.065584481
-0.41260707 0.2653214 0.90159339 0.065584481
-0.41249874 0.25730449 0.91109085 0.065584481
-0.42058724 0.26103169 0.90667546 0.065584481
-0.42837483 0.26096368 0.90675604 0.065584481
-0.42040989 0.2718181 0.89389664 0.065584481
-0.42060441 0.26522034 0.90171301 0.065584481
-0.42849979 0.2718181 0.89389664 0.065584481
-0.42860341 0.26516983 0.90177292 0.065584481
-0.42050216 0.25347936 0.91562241 0.065584481
-0.42054501 0.25727206 0.91112918 0.065584481
-0.42838249 0.25354868 0.91554034 0.065584481
-0.42879099 0.25727206 0.91112918 0.065584481
-0.43658122 0.26096368 0.90675604 0.065584481
-0.44478765 0.26096368 0.90675592 0.065584481
-0.4365899 0.2718181 0.89389664 0.065584481
-0.43660009 0.26522034 0.90171301 0.065584481
-0.44454339 0.27179739 0.89392108 0.065584481
-0.4445951 0.26527071 0.90165335 0.065584481
-0.43666834 0.25354868 0.91554034 0.065584481
-0.43683866 0.25723943 0.91116786 0.065584481
-0.44454581 0.25361803 0.91545814 0.065584481
-0.44466224 0.25736976 0.91101354 0.065584481
-0.45257866 0.26089567 0.90683651 0.065584481
-0.45250046 0.2718181 0.89389664 0.065584481
-0.45259467 0.26522034 0.90171301 0.065584481
-0.452411 0.25354868 0.91554034 0.065584481
-0.45270371 0.25727206 0.91112918 0.065584481
-0.41270301 0.24608715 0.92437994 0.065584481
-0.41252899 0.23118825 0.94203043 0.065584481
-0.41254702 0.23831117 0.93359214 0.065584481
-0.41283822 0.24215288 0.92904079 0.065584481
-0.41234973 0.23502238 0.9374882 0.065584481
-0.42064881 0.24588625 0.92461795 0.065584481
-0.42859137 0.24601996 0.92445958 0.065584481
-0.43675631 0.24598654 0.92449915 0.065584481
-0.44471088 0.2460572 0.92441529 0.065584481
-0.42054498 0.2310182 0.94223189 0.065584481
-0.42872885 0.23112832 0.94210142 0.065584481
-0.42058799 0.23824285 0.93367308 0.065584481
-0.42083398 0.24222428 0.92895627 0.065584481
-0.41998586 0.23502238 0.9374882 0.065584481
-0.42860764 0.23837967 0.93351096 0.065584481
-0.42838514 0.24208151 0.92912537 0.065584481
-0.42847037 0.23502238 0.9374882 0.065584481
-0.43641648 0.23820503 0.93371785 0.065584481
-0.43638095 0.24215288 0.92904079 0.065584481
-0.43695492 0.23502238 0.93748808 0.065584481
-0.44445109 0.23827712 0.93363249 0.065584481
-0.44478902 0.24215288 0.92904079 0.065584481
-0.44459105 0.23502235 0.93748808 0.065584481
-0.41263852 0.25354868 0.91554034 0.065584481
-0.41264722 0.25041562 0.91925222 0.065584481
-0.42068946 0.25041571 0.9192521 0.065584481
-0.42874214 0.25032592 0.91935843 0.065584481
-0.43648604 0.25050563 0.91914558 0.065584481
-0.44453871 0.25041571 0.9192521 0.065584481
-0.45265302 0.24598651 0.92449915 0.065584481
-0.45269814 0.23824285 0.93367296 0.065584481
-0.45278189 0.24222428 0.92895627 0.065584481
-0.45222712 0.23502235 0.93748808 0.065584481
-0.45258093 0.25041562 0.91925222 0.065584481
-0.41243362 0.29313412 0.8686443 0.065584473
-0.41263261 0.29713959 0.86389875 0.065584473
-0.41286907 0.28583026 0.87729704 0.065584473
-0.41273013 0.27888831 0.88552094 0.065584473
-0.41208106 0.28295699 0.88070089 0.065584473
-0.41248786 0.28981975 0.87257081 0.065584473
-0.42055005 0.29320437 0.86856109 0.065584473
-0.42065248 0.29711306 0.86393023 0.065584473
-0.42866418 0.29327449 0.86847794 0.065584473
-0.42847133 0.29711306 0.86393023 0.065584473
-0.42080888 0.28583026 0.87729704 0.065584473
-0.42074436 0.27888831 0.88552094 0.065584473
-0.42005166 0.28295699 0.88070089 0.065584473
-0.4287487 0.28583026 0.87729704 0.065584473
-0.42875862 0.27888831 0.88552094 0.065584473
-0.4280223 0.28295699 0.88070089 0.065584473
-0.42038485 0.28981972 0.87257057 0.065584473
-0.42828193 0.28981972 0.87257046 0.065584473
-0.43679482 0.29320434 0.86856097 0.065584473
-0.43649229 0.29708666 0.86396146 0.065584473
-0.44465554 0.29320434 0.86856091 0.065584473
-0.44469339 0.29719234 0.86383629 0.065584473
-0.43668851 0.28583026 0.87729704 0.065584473
-0.43677285 0.27888831 0.88552094 0.065584473
-0.4359929 0.28295699 0.88070089 0.065584473
-0.4446283 0.28583026 0.87729704 0.065584473
-0.44478709 0.27888831 0.88552094 0.065584473
-0.44396347 0.28295699 0.88070089 0.065584473
-0.43645167 0.28974885 0.8726545 0.065584473
-0.44460326 0.28981972 0.87257046 0.065584473
-0.45251629 0.29320431 0.86856091 0.065584473
-0.45270911 0.29711306 0.86393023 0.065584473
-0.45256814 0.2858302 0.87729704 0.065584473
-0.45280135 0.27888831 0.88552094 0.065584473
-0.45193404 0.28295699 0.88070089 0.065584473
-0.45990473 0.28295699 0.88070089 0.065584473
-0.4527525 0.28989053 0.87248659 0.065584473
-0.35675102 0.21282871 0.96378076 0.065584481
-0.36468086 0.22036403 0.95485377 0.065584481
-0.36460128 0.2128287 0.96378076 0.065584481
-0.36469913 0.21698952 0.95885158 0.065584481
-0.3724584 0.22036405 0.95485383 0.065584481
-0.37245151 0.21282868 0.96378076 0.065584481
-0.37274405 0.21702965 0.95880401 0.065584481
-0.38110012 0.22036405 0.95485383 0.065584481
-0.38075003 0.2129055 0.96368968 0.065584481
-0.38052881 0.21687758 0.95898414 0.065584481
-0.36444116 0.23113091 0.94209844 0.065584481
-0.35648111 0.22435251 0.95012861 0.065584481
-0.36456779 0.22441064 0.95005971 0.065584481
-0.37265268 0.22446935 0.94999015 0.065584481
-0.38055819 0.22435251 0.95012861 0.065584481
-0.36440462 0.20935594 0.96789491 0.065584481
-0.37258461 0.2092565 0.96801269 0.065584481
-0.380752 0.20945571 0.96777666 0.065584481
-0.38887769 0.22036403 0.95485377 0.065584481
-0.38857603 0.21275187 0.96387166 0.065584481
-0.38857508 0.21691748 0.95893687 0.065584481
-0.39665526 0.22036405 0.95485383 0.065584481
-0.39644909 0.2129055 0.96368968 0.065584481
-0.39659682 0.21695387 0.95889366 0.065584481
-0.4044328 0.22036403 0.95485377 0.065584481
-0.40427804 0.21275187 0.96387166 0.065584481
-0.40461749 0.21698952 0.95885146 0.065584481
-0.38864318 0.22441064 0.95005965 0.065584481
-0.39672622 0.22446935 0.94999009 0.065584481
-0.40463531 0.22435251 0.95012856 0.065584481
-0.30850968 0.22036405 0.95485389 0.065584481
-0.31628722 0.22036405 0.95485389 0.065584481
-0.31662741 0.21282871 0.96378076 0.065584481
-0.31675661 0.21695387 0.95889378 0.065584481
-0.31669396 0.23113096 0.94209856 0.065584481
-0.30849907 0.22447222 0.9499867 0.065584481
-0.3164171 0.22441065 0.95005971 0.065584481
-0.32406479 0.22036405 0.95485389 0.065584481
-0.32493123 0.21290551 0.9636898 0.065584481
-0.32456702 0.21695335 0.95889443 0.065584481
-0.33270651 0.22036405 0.95485389 0.065584481
-0.33274668 0.21275188 0.96387172 0.065584481
-0.33237749 0.21695387 0.95889378 0.065584481
-0.34048402 0.22036403 0.95485377 0.065584481
-0.34063029 0.21290551 0.9636898 0.065584481
-0.34040102 0.21698952 0.95885158 0.065584481
-0.34826156 0.22036405 0.95485383 0.065584481
-0.34844866 0.21275188 0.96387172 0.065584481
-0.34865323 0.21691748 0.95893687 0.065584481
-0.32452574 0.23101601 0.94223469 0.065584481
-0.33254752 0.23107319 0.94216681 0.065584481
-0.32450557 0.22446935 0.94999015 0.065584481
-0.33240402 0.22435251 0.95012861 0.065584481
-0.34056756 0.23113091 0.94209844 0.065584481
-0.34840277 0.23101601 0.94223452 0.065584481
-0.34049246 0.22441064 0.95005971 0.065584481
-0.34857911 0.22446935 0.94999015 0.065584481
-0.35690328 0.22036405 0.95485383 0.065584481
-0.3566767 0.21695387 0.95889378 0.065584481
-0.35646147 0.30098215 0.85934657 0.065584481
-0.36450055 0.30091342 0.85942805 0.065584481
-0.37253544 0.30098215 0.85934657 0.065584481
-0.380568 0.30105084 0.85926521 0.065584481
-0.38860783 0.30098215 0.85934657 0.065584481
-0.39664447 0.30098224 0.85934651 0.065584481
-0.40468109 0.30098215 0.85934657 0.065584481
-0.35631117 0.30859777 0.85032475 0.065584481
-0.35649383 0.31227422 0.84596956 0.065584481
-0.36400691 0.30859777 0.85032475 0.065584481
-0.36465633 0.31240737 0.84581184 0.065584481
-0.35656634 0.31910902 0.83787203 0.065584481
-0.36447507 0.31922466 0.83773506 0.065584481
-0.36481309 0.32335702 0.83283955 0.065584481
-0.37247217 0.30859777 0.85032469 0.065584481
-0.37269801 0.31239238 0.84582949 0.065584481
-0.38093743 0.30859777 0.85032475 0.065584481
-0.38060552 0.3122893 0.84595156 0.065584481
-0.37249649 0.31916818 0.83780193 0.065584481
-0.37310427 0.32335702 0.83283961 0.065584481
-0.38050964 0.31928095 0.8376683 0.065584481
-0.3566815 0.30531052 0.8542192 0.065584481
-0.36472446 0.30535084 0.85417145 0.065584481
-0.37260959 0.30535096 0.85417116 0.065584481
-0.38049471 0.30535084 0.85417128 0.065584481
-0.38863316 0.30859777 0.85032475 0.065584481
-0.38852075 0.31235811 0.84587014 0.065584481
-0.39632878 0.30859774 0.85032463 0.065584481
-0.39655611 0.3123405 0.845891 0.065584481
-0.38862777 0.31914124 0.83783382 0.065584481
-0.396649 0.31922543 0.83773404 0.065584481
-0.40402445 0.30859774 0.85032451 0.065584481
-0.40459189 0.31232375 0.84591085 0.065584481
-0.40455541 0.3192243 0.83773541 0.065584481
-0.38853544 0.30539098 0.85412377 0.065584481
-0.39657375 0.30535084 0.85417128 0.065584481
-0.40445897 0.30539268 0.85412174 0.065584481
-0.30876115 0.3009823 0.85934699 0.065584473
-0.31653854 0.3009823 0.85934699 0.065584473
-0.32457632 0.30105093 0.85926563 0.065584473
-0.33261093 0.30098227 0.85934699 0.065584473
-0.34064752 0.30098224 0.85934669 0.065584473
-0.3486841 0.30098215 0.85934657 0.065584473
-0.3085978 0.3085978 0.85032475 0.065584473
-0.30851722 0.31234092 0.84589058 0.065584473
-0.31629351 0.30859777 0.85032475 0.065584473
-0.31668115 0.31227425 0.84596956 0.065584473
-0.30858779 0.31919631 0.83776873 0.065584473
-0.31649366 0.31922543 0.8377341 0.065584473
-0.31657332 0.32335708 0.83283967 0.065584473
-0.30860102 0.30526716 0.85427064 0.065584473
-0.31663439 0.30539268 0.85412192 0.065584473
-0.32398921 0.30859777 0.85032475 0.065584473
-0.32459462 0.3123408 0.84589064 0.065584473
-0.33245447 0.30859777 0.85032469 0.065584473
-0.33250585 0.31240737 0.84581184 0.065584473
-0.32450974 0.31919605 0.83776891 0.065584473
-0.33263168 0.31922466 0.83773506 0.065584473
-0.34091976 0.30859777 0.85032475 0.065584473
-0.34067059 0.31234089 0.84589052 0.065584473
-0.34861547 0.30859777 0.85032475 0.065584473
-0.34858134 0.3123408 0.84589064 0.065584473
-0.34065056 0.31916818 0.83780193 0.065584473
-0.34866872 0.31928095 0.83766836 0.065584473
-0.32468039 0.30535096 0.8541714 0.065584473
-0.33256555 0.30535084 0.85417151 0.065584473
-0.34060895 0.30539098 0.85412401 0.065584473
-0.3486445 0.30535084 0.85417151 0.065584473
-0.35697958 0.26096374 0.90675604 0.065584481
-0.3647885 0.26103172 0.90667546 0.065584481
-0.36458871 0.27181813 0.89389664 0.065584481
-0.36462465 0.26527074 0.90165347 0.065584481
-0.36458021 0.25354868 0.9155404 0.065584481
-0.36447218 0.25727206 0.9111293 0.065584481
-0.37257105 0.26096368 0.90675604 0.065584481
-0.38077754 0.26096368 0.90675604 0.065584481
-0.37267882 0.27181813 0.89389664 0.065584481
-0.37245122 0.26511967 0.90183234 0.065584481
-0.38076875 0.27181813 0.89389664 0.065584481
-0.38045442 0.26522037 0.90171301 0.065584481
-0.37243953 0.25347936 0.91562247 0.065584481
-0.37271819 0.25727206 0.9111293 0.065584481
-0.3803241 0.25354868 0.9155404 0.065584481
-0.38076347 0.25723946 0.91116792 0.065584481
-0.38856286 0.26089567 0.90683663 0.065584481
-0.39637035 0.26096368 0.90675604 0.065584481
-0.38872731 0.27183846 0.89387256 0.065584481
-0.38861519 0.26522034 0.90171301 0.065584481
-0.39667901 0.27181813 0.89389664 0.065584481
-0.39661276 0.2652202 0.90171319 0.065584481
-0.38861004 0.25354868 0.9155404 0.065584481
-0.38859653 0.25736976 0.91101354 0.065584481
-0.39689592 0.25354868 0.91554034 0.065584481
-0.39642131 0.25717461 0.91124475 0.065584481
-0.40457684 0.26096368 0.90675604 0.065584481
-0.40476903 0.27181813 0.89389664 0.065584481
-0.40461034 0.26522034 0.90171301 0.065584481
-0.40477693 0.25361803 0.91545814 0.065584481
-0.40446562 0.25727206 0.9111293 0.065584481
-0.36459577 0.24595301 0.92453885 0.065584473
-0.37254655 0.24608718 0.92437994 0.065584473
-0.38048205 0.24588628 0.92461795 0.065584473
-0.36481786 0.23824291 0.93367308 0.065584473
-0.36447775 0.24208154 0.92912549 0.065584473
-0.36398774 0.23502238 0.9374882 0.065584473
-0.37245515 0.23112833 0.94210148 0.065584473
-0.38063452 0.23096342 0.94229674 0.065584473
-0.37262926 0.23827738 0.93363214 0.065584473
-0.37247935 0.24215293 0.92904091 0.065584473
-0.37247229 0.23502238 0.9374882 0.065584473
-0.38043964 0.23831119 0.93359214 0.065584473
-0.38088742 0.24215293 0.92904091 0.065584473
-0.38095686 0.23502238 0.9374882 0.065584473
-0.36467138 0.25041571 0.9192521 0.065584473
-0.37271354 0.25041562 0.91925222 0.065584473
-0.38075575 0.25041571 0.9192521 0.065584473
-0.38843146 0.24601999 0.92445958 0.065584473
-0.39659476 0.24598661 0.92449915 0.065584473
-0.40475911 0.24595301 0.92453885 0.065584473
-0.38865715 0.23118828 0.94203043 0.065584473
-0.39666799 0.2310182 0.94223189 0.065584473
-0.38868323 0.23827712 0.93363249 0.065584473
-0.38888609 0.24222429 0.92895633 0.065584473
-0.38859296 0.23502238 0.9374882 0.065584473
-0.39672077 0.2383492 0.93354702 0.065584473
-0.39643148 0.24208154 0.92912537 0.065584473
-0.39622906 0.23502238 0.9374882 0.065584473
-0.40468439 0.23101601 0.94223446 0.065584473
-0.40452316 0.2381748 0.93375367 0.065584473
-0.40443009 0.2421529 0.92904079 0.065584473
-0.40471363 0.23502238 0.9374882 0.065584473
-0.38880378 0.25032592 0.91935843 0.065584473
-0.396557 0.25050563 0.91914558 0.065584473
-0.40460503 0.25041571 0.9192521 0.065584473
-0.35661525 0.29320437 0.86856109 0.065584473
-0.35653806 0.29711306 0.8639307 0.065584473
-0.36447603 0.29320437 0.86856109 0.065584473
-0.36455646 0.29708669 0.86396188 0.065584473
-0.35689372 0.28583026 0.8772971 0.065584473
-0.3648335 0.28583026 0.8772971 0.065584473
-0.36437824 0.27888831 0.88552094 0.065584473
-0.36425731 0.28295699 0.88070089 0.065584473
-0.35668212 0.28981975 0.87257093 0.065584473
-0.36457917 0.28981975 0.87257093 0.065584473
-0.3725988 0.29320443 0.86856103 0.065584473
-0.37256703 0.29711306 0.8639307 0.065584473
-0.3807216 0.29320437 0.86856109 0.065584473
-0.3803857 0.29711306 0.86393058 0.065584473
-0.37277335 0.28583026 0.8772971 0.065584473
-0.37252775 0.27894485 0.885454 0.065584473
-0.37222794 0.28295699 0.88070089 0.065584473
-0.38071316 0.28583026 0.87729704 0.065584473
-0.38067323 0.27888831 0.88552094 0.065584473
-0.38019854 0.28295699 0.88070089 0.065584473
-0.37247619 0.28981975 0.87257093 0.065584473
-0.38063648 0.28981984 0.87257075 0.065584473
-0.38858229 0.29320437 0.86856109 0.065584473
-0.38840383 0.29719234 0.86383659 0.065584473
-0.39644292 0.29320437 0.86856109 0.065584473
-0.39660609 0.29703361 0.86402428 0.065584473
-0.38865298 0.28583026 0.87729704 0.065584473
-0.38868743 0.27888831 0.88552094 0.065584473
-0.38816914 0.28295699 0.88070089 0.065584473
-0.39659274 0.28583026 0.87729704 0.065584473
-0.39670169 0.27888831 0.88552094 0.065584473
-0.3961398 0.28295699 0.88070089 0.065584473
-0.38879678 0.28981975 0.87257093 0.065584473
-0.3966938 0.28981975 0.87257093 0.065584473
-0.40430373 0.29320437 0.86856109 0.065584473
-0.40462416 0.29711306 0.86393023 0.065584473
-0.40472543 0.28585762 0.87726468 0.065584473
-0.40471593 0.27888831 0.88552094 0.065584473
-0.40411043 0.28295699 0.88070089 0.065584473
-0.40459082 0.28981975 0.87257093 0.065584473
-0.308561 0.26096374 0.90675604 0.065584473
-0.31633997 0.26089573 0.90683663 0.065584473
-0.30863297 0.27192089 0.89377511 0.065584473
-0.30863947 0.26522037 0.90171301 0.065584473
-0.31658781 0.27181813 0.89389688 0.065584473
-0.31663707 0.26522022 0.90171331 0.065584473
-0.30866888 0.25361806 0.91545844 0.065584473
-0.30860347 0.25730455 0.91109097 0.065584473
-0.31652179 0.25354868 0.9155404 0.065584473
-0.31664532 0.25727212 0.91112936 0.065584473
-0.32415387 0.26096374 0.90675604 0.065584473
-0.3323603 0.26096374 0.90675604 0.065584473
-0.32467785 0.27181813 0.89389688 0.065584473
-0.32463458 0.26522037 0.90171301 0.065584473
-0.33276784 0.27181813 0.89389688 0.065584473
-0.33279538 0.26522037 0.90171301 0.065584473
-0.32437685 0.25347936 0.91562247 0.065584473
-0.32468823 0.25723949 0.91116792 0.065584473
-0.3322657 0.25354868 0.9155404 0.065584473
-0.33272544 0.25727212 0.9111293 0.065584473
-0.34056672 0.26096374 0.90675604 0.065584473
-0.34877315 0.26096374 0.90675604 0.065584473
-0.34058824 0.27181804 0.89389694 0.065584473
-0.34063432 0.26527309 0.90165061 0.065584473
-0.3484087 0.27181813 0.89389682 0.065584473
-0.34846351 0.26522037 0.90171301 0.065584473
-0.34055912 0.25727233 0.911129 0.065584473
-0.34839281 0.25727206 0.9111293 0.065584473
-0.35649866 0.27181813 0.8938967 0.065584473
-0.35662431 0.26522037 0.90171301 0.065584473
-0.35642824 0.25730449 0.91109085 0.065584473
-0.31647831 0.24601999 0.92445964 0.065584481
-0.31664294 0.2383797 0.93351096 0.065584481
-0.31658295 0.24222429 0.92895633 0.065584481
-0.31647423 0.2350224 0.93748838 0.065584481
-0.30865416 0.25041571 0.9192521 0.065584481
-0.31669885 0.25050563 0.91914558 0.065584481
-0.32463855 0.24598661 0.92449921 0.065584481
-0.33279979 0.24595301 0.92453897 0.065584481
-0.34053621 0.24598686 0.9244988 0.065584481
-0.34848481 0.24598661 0.92449915 0.065584481
-0.32467428 0.23831119 0.93359214 0.065584481
-0.32455239 0.24215293 0.92904091 0.065584481
-0.3249588 0.2350224 0.93748838 0.065584481
-0.33270773 0.23824291 0.93367308 0.065584481
-0.332524 0.24208154 0.92912549 0.065584481
-0.3325949 0.23502241 0.93748832 0.065584481
-0.34052053 0.23827738 0.93363214 0.065584481
-0.34052852 0.24215293 0.92904091 0.065584481
-0.340231 0.2350224 0.93748838 0.065584481
-0.34833232 0.23831119 0.93359214 0.065584481
-0.34853086 0.24222429 0.92895633 0.065584481
-0.34871554 0.2350224 0.93748826 0.065584481
-0.35663819 0.24601999 0.92445958 0.065584481
-0.3564229 0.23107319 0.94216681 0.065584481
-0.35657457 0.23827715 0.93363249 0.065584481
-0.35650322 0.24215293 0.92904091 0.065584481
-0.35635161 0.23502238 0.9374882 0.065584481
-0.3244603 0.25041562 0.91925222 0.065584481
-0.33250251 0.25041571 0.9192521 0.065584481
-0.34055167 0.25354868 0.9155404 0.065584481
-0.34054503 0.25032592 0.91935843 0.065584481
-0.34883758 0.25354868 0.9155404 0.065584481
-0.34858787 0.25041571 0.9192521 0.065584481
-0.35672289 0.25361803 0.91545826 0.065584481
-0.35662794 0.25050563 0.91914558 0.065584481
-0.30866188 0.29313415 0.8686443 0.065584481
-0.30845252 0.29711306 0.8639307 0.065584481
-0.31678823 0.29320437 0.86856109 0.065584481
-0.31647372 0.29703361 0.86402476 0.065584481
-0.30846086 0.28583026 0.8772971 0.065584481
-0.30854627 0.2788884 0.88552111 0.065584481
-0.30846301 0.28295705 0.88070095 0.065584481
-0.31640071 0.28583026 0.8772971 0.065584481
-0.3165606 0.2788884 0.88552105 0.065584481
-0.31643364 0.28295705 0.88070095 0.065584481
-0.30877429 0.28981978 0.87257099 0.065584481
-0.31667131 0.28981978 0.87257099 0.065584481
-0.32464898 0.29320437 0.86856109 0.065584481
-0.32466951 0.29719234 0.86383677 0.065584481
-0.33250979 0.29320437 0.86856109 0.065584481
-0.33269081 0.29711306 0.8639307 0.065584481
-0.32434046 0.28583026 0.8772971 0.065584481
-0.3245748 0.2788884 0.88552105 0.065584481
-0.32440427 0.28295705 0.88070095 0.065584481
-0.33228028 0.28583026 0.8772971 0.065584481
-0.332589 0.27888834 0.88552105 0.065584481
-0.3323749 0.28295705 0.88070095 0.065584481
-0.32456833 0.28981975 0.87257093 0.065584481
-0.33246538 0.28981975 0.87257093 0.065584481
-0.34063226 0.29327452 0.868478 0.065584481
-0.340702 0.29713959 0.86389923 0.065584481
-0.3487545 0.29320437 0.86856109 0.065584481
-0.34871915 0.29711306 0.8639307 0.065584481
-0.34042779 0.28591201 0.87720025 0.065584481
-0.34046486 0.27894869 0.88544953 0.065584481
-0.34034547 0.28295705 0.88070095 0.065584481
-0.34874624 0.28574833 0.8773942 0.065584481
-0.34834969 0.27888831 0.88552094 0.065584481
-0.3483161 0.28295705 0.88070095 0.065584481
-0.34062541 0.28989056 0.87248707 0.065584481
-0.3487851 0.28981975 0.87257093 0.065584481
-0.35636395 0.27888831 0.88552094 0.065584481
-0.35628673 0.28295705 0.88070095 0.065584481
-0.4607234 0.18048023 1.0021043 0.065584473
-0.46050325 0.18419749 0.99770039 0.065584473
-0.46888581 0.18048023 1.0021043 0.065584473
-0.47704828 0.18048026 1.0021044 0.065584473
-0.46839294 0.18424153 0.99764836 0.065584473
-0.47630772 0.18428011 0.9976027 0.065584473
-0.46074486 0.16594951 1.0193189 0.065584473
-0.46859118 0.16603541 1.0192171 0.065584473
-0.47643504 0.16612132 1.0191153 0.065584473
-0.4602558 0.17293906 1.0110384 0.065584473
-0.46049562 0.17680684 1.0064561 0.065584473
-0.46069539 0.169765 1.0147986 0.065584473
-0.46849102 0.17293906 1.0110384 0.065584473
-0.46868473 0.17663926 1.0066546 0.065584473
-0.46862018 0.17000079 1.0145193 0.065584473
-0.47672623 0.17293909 1.0110385 0.065584473
-0.47667211 0.17667885 1.006608 0.065584473
-0.47659573 0.16988315 1.0146588 0.065584473
-0.4843038 0.18048026 1.0021044 0.065584473
-0.49246621 0.18048026 1.0021044 0.065584473
-0.48442793 0.18411547 0.99779773 0.065584473
-0.49255928 0.18428013 0.99760276 0.065584473
-0.50062871 0.18048026 1.0021044 0.065584473
-0.50068259 0.18411553 0.99779785 0.065584473
-0.48496145 0.17293909 1.0110385 0.065584473
-0.48439464 0.17685598 1.0063982 0.065584473
-0.48486042 0.16988286 1.014659 0.065584473
-0.49228162 0.17293909 1.0110385 0.065584473
-0.49237224 0.17663926 1.006655 0.065584473
-0.49281898 0.16988301 1.0146589 0.065584473
-0.50051683 0.17293909 1.0110385 0.065584473
-0.50057417 0.17680685 1.0064564 0.065584473
-0.50047153 0.16988315 1.0146588 0.065584473
-0.46051347 0.16215093 1.0238191 0.065584481
-0.4687143 0.15028541 1.0378762 0.065584481
-0.47670168 0.15037449 1.0377707 0.065584481
-0.46861139 0.15744422 1.0293952 0.065584481
-0.46856198 0.16203068 1.0239615 0.065584481
-0.46844912 0.15427962 1.0331444 0.065584481
-0.47637495 0.15744407 1.0293955 0.065584481
-0.47655624 0.16227072 1.0236771 0.065584481
-0.47686431 0.15427962 1.0331444 0.065584481
-0.48473036 0.16594951 1.0193189 0.065584481
-0.49257424 0.16603543 1.0192173 0.065584481
-0.48468179 0.15028542 1.0378765 0.065584481
-0.49266422 0.15019633 1.0379821 0.065584481
-0.48444918 0.15744397 1.0293957 0.065584481
-0.48460481 0.16215093 1.0238191 0.065584481
-0.48434454 0.15427962 1.0331444 0.065584481
-0.49283391 0.15744425 1.0293953 0.065584481
-0.49232641 0.1621508 1.0238193 0.065584481
-0.49275985 0.15427965 1.0331445 0.065584481
-0.50041568 0.16612133 1.0191156 0.065584481
-0.50065088 0.15028542 1.0378766 0.065584481
-0.5086351 0.1503745 1.037771 0.065584481
-0.50059754 0.15744413 1.0293955 0.065584481
-0.50035679 0.16215067 1.0238196 0.065584481
-0.50117511 0.15427965 1.0331445 0.065584481
-0.50867176 0.157444 1.0293957 0.065584481
-0.50869614 0.16215095 1.0238192 0.065584481
-0.50865531 0.15427965 1.0331445 0.065584481
-0.46838635 0.14382392 1.045531 0.065584481
-0.4764328 0.14391433 1.045424 0.065584481
-0.48447153 0.14382392 1.0455312 0.065584481
-0.49251297 0.14373353 1.0456386 0.065584481
-0.50055856 0.14382394 1.0455315 0.065584481
-0.50860161 0.14391436 1.0454243 0.065584481
-0.4604682 0.19081183 0.98986429 0.065584473
-0.46853095 0.19081137 0.98986477 0.065584473
-0.4765937 0.19081183 0.98986435 0.065584473
-0.48465645 0.19081143 0.98986495 0.065584473
-0.49271917 0.19081189 0.98986435 0.065584473
-0.50078189 0.19081143 0.98986495 0.065584473
-0.46053246 0.20577754 0.97213447 0.065584473
-0.46092448 0.19804509 0.98129517 0.065584473
-0.46031091 0.20232327 0.97622687 0.065584473
-0.46076205 0.209356 0.96789515 0.065584473
