# .PCD v0.7 - Point Cloud Data file format
VERSION 0.7
FIELDS x y z intensity
SIZE 4 4 4 4
TYPE F F F F
COUNT 1 1 1 1
WIDTH 1078
HEIGHT 1
VIEWPOINT 0 0 0 1 0 0 0
POINTS 1078
DATA ascii
-0.3723833 0.29208076 0.86989212 0.04728983
-0.37261298 0.29590732 0.86535859 0.04728983
-0.38025609 0.29208076 0.86989212 0.04728983
-0.38057527 0.29599741 0.8652519 0.04728983
-0.37295339 0.28468451 0.87865436 0.04728983
-0.37254402 0.28172693 0.88215816 0.04728983
-0.38090548 0.28468451 0.8786543 0.04728983
-0.38079059 0.28179935 0.88207239 0.04728983
-0.37252304 0.28868222 0.87391835 0.04728983
-0.38059199 0.288726 0.8738665 0.04728983
-0.38812891 0.29208076 0.86989212 0.04728983
-0.38853467 0.29608709 0.86514562 0.04728983
-0.39600167 0.29208076 0.86989212 0.04728983
-0.39662459 0.29597956 0.865273 0.04728983
-0.38885757 0.28468451 0.8786543 0.04728983
-0.38877365 0.28179935 0.88207239 0.04728983
-0.39680964 0.28468451 0.8786543 0.04728983
-0.39675662 0.28179935 0.88207239 0.04728983
-0.38865742 0.28868222 0.87391835 0.04728983
-0.39656657 0.28868222 0.87391835 0.04728983
-0.40387449 0.29208076 0.86989212 0.04728983
-0.40458882 0.29599741 0.8652519 0.04728983
-0.40476179 0.28468451 0.8786543 0.04728983
-0.40473971 0.28179935 0.88207239 0.04728983
-0.40463382 0.28859463 0.87402219 0.04728983
-0.30850673 0.27072424 0.8951931 0.04728983
-0.30864123 0.2627919 0.90459025 0.04728983
-0.3085565 0.26703507 0.89956343 0.04728983
-0.31641296 0.27062994 0.89530486 0.04728983
-0.31649435 0.262739 0.90465295 0.04728983
-0.31669781 0.26703507 0.89956343 0.04728983
-0.30887294 0.27419469 0.89108163 0.04728983
-0.31693751 0.27419469 0.89108163 0.04728983
-0.32468095 0.2777223 0.88690251 0.04728983
-0.33270764 0.27772221 0.88690251 0.04728983
-0.3405301 0.27775294 0.88686603 0.04728983
-0.3483595 0.27772218 0.88690233 0.04728983
-0.35638624 0.27772218 0.88690233 0.04728983
-0.3245157 0.27062994 0.89530486 0.04728983
-0.32436049 0.2627919 0.90459025 0.04728983
-0.32483914 0.26703507 0.89956343 0.04728983
-0.3326185 0.27062994 0.89530486 0.04728983
-0.33254731 0.2627919 0.90459025 0.04728983
-0.33298042 0.26703501 0.89956343 0.04728983
-0.34051505 0.27066126 0.89526767 0.04728983
-0.34057036 0.26279172 0.90459043 0.04728983
-0.34072959 0.26710191 0.89948422 0.04728983
-0.34841865 0.27062994 0.8953048 0.04728983
-0.34859344 0.2627919 0.90459025 0.04728983
-0.34844837 0.26703501 0.89956343 0.04728983
-0.3250021 0.27419469 0.89108163 0.04728983
-0.33306664 0.27419469 0.89108163 0.04728983
-0.34074271 0.27426037 0.89100373 0.04728983
-0.34838867 0.27419469 0.89108163 0.04728983
-0.35652143 0.27062994 0.89530456 0.04728983
-0.35678035 0.2627919 0.90459025 0.04728983
-0.3565897 0.26703501 0.89956343 0.04728983
-0.35645324 0.27419469 0.89108163 0.04728983
-0.30884516 0.2447852 0.92592263 0.04728983
-0.31635132 0.24464338 0.92609054 0.04728983
-0.30866644 0.23762904 0.93440026 0.04728983
-0.30855408 0.24160109 0.92969471 0.04728983
-0.30850026 0.23371044 0.93904269 0.04728983
-0.31684372 0.23772193 0.93429023 0.04728983
-0.31640363 0.24150904 0.92980379 0.04728983
-0.31671813 0.23380424 0.93893147 0.04728983
-0.30862448 0.25611961 0.91249484 0.04728983
-0.31660417 0.25603098 0.91259974 0.04728983
-0.31665459 0.24915282 0.92074817 0.04728983
-0.32433116 0.24471429 0.9260065 0.04728983
-0.33271179 0.24471426 0.92600644 0.04728983
-0.34068871 0.24478517 0.92592227 0.04728983
-0.3486343 0.24471426 0.92600632 0.04728983
-0.32473308 0.23762895 0.93440038 0.04728983
-0.32453814 0.24150912 0.92980367 0.04728983
-0.32464671 0.23371032 0.93904275 0.04728983
-0.33262536 0.23753627 0.93451017 0.04728983
-0.33267203 0.24141724 0.92991251 0.04728983
-0.33257812 0.23361671 0.93915361 0.04728983
-0.34051946 0.23772193 0.93429023 0.04728983
-0.34052733 0.24160109 0.92969471 0.04728983
-0.3405115 0.23380421 0.93893147 0.04728983
-0.34841162 0.23762895 0.93440038 0.04728983
-0.34838063 0.24150904 0.92980379 0.04728983
-0.34844282 0.23371029 0.93904269 0.04728983
-0.35658208 0.24464335 0.92609036 0.04728983
-0.3565864 0.23762904 0.93440026 0.04728983
-0.3565152 0.24150912 0.92980367 0.04728983
-0.35637707 0.23361669 0.93915361 0.04728983
-0.32458821 0.25603089 0.91259992 0.04728983
-0.32466269 0.24910033 0.9208104 0.04728983
-0.33257219 0.25603098 0.91259974 0.04728983
-0.33265069 0.24925835 0.92062312 0.04728983
-0.34055644 0.25594249 0.91270459 0.04728983
-0.34048191 0.24909824 0.92081285 0.04728983
-0.34854108 0.25603098 0.91259974 0.04728983
-0.34848687 0.24915302 0.920748 0.04728983
-0.35652298 0.25611958 0.91249478 0.04728983
-0.30861366 0.29208079 0.86989218 0.04728983
-0.30853179 0.29599744 0.8652519 0.04728983
-0.31727371 0.29208079 0.86989224 0.04728983
-0.31649682 0.29597959 0.865273 0.04728983
-0.30854076 0.28468451 0.87865436 0.04728983
-0.30862746 0.2777223 0.88690263 0.04728983
-0.30841035 0.28179938 0.88207245 0.04728983
-0.31649289 0.28468451 0.87865436 0.04728983
-0.31665421 0.2777223 0.88690251 0.04728983
-0.31639335 0.28179938 0.88207245 0.04728983
-0.30861694 0.28868222 0.87391853 0.04728983
-0.31652614 0.28868222 0.87391853 0.04728983
-0.32514653 0.29208079 0.86989224 0.04728983
-0.3245827 0.29608712 0.86514562 0.04728983
-0.33301932 0.29208079 0.86989224 0.04728983
-0.33254558 0.29599744 0.8652519 0.04728983
-0.32444498 0.28468451 0.87865436 0.04728983
-0.3243764 0.28179938 0.88207245 0.04728983
-0.33239707 0.28468451 0.87865436 0.04728983
-0.33235943 0.28179938 0.88207245 0.04728983
-0.32443538 0.28868222 0.87391835 0.04728983
-0.33234462 0.28868222 0.87391835 0.04728983
-0.34089214 0.29208079 0.86989224 0.04728983
-0.34063736 0.29599744 0.86525184 0.04728983
-0.3487649 0.29208076 0.86989212 0.04728983
-0.34872919 0.29599744 0.8652519 0.04728983
-0.3403492 0.28468451 0.87865436 0.04728983
-0.34034246 0.28179938 0.88207245 0.04728983
-0.34868762 0.2846323 0.87871629 0.04728983
-0.34832546 0.28179935 0.88207245 0.04728983
-0.34057394 0.28872427 0.87386858 0.04728983
-0.34879532 0.28868222 0.87391835 0.04728983
-0.35630846 0.28179935 0.88207239 0.04728983
-0.3565993 0.34341356 0.80907917 0.04728983
-0.35675958 0.34729457 0.80448133 0.04728983
-0.36465397 0.34341305 0.80907965 0.04728983
-0.36476851 0.34729457 0.80448133 0.04728983
-0.37260324 0.34346479 0.80901837 0.04728983
-0.37277737 0.34729457 0.80448133 0.04728983
-0.38055557 0.34343874 0.80904901 0.04728983
-0.38078627 0.34729457 0.80448133 0.04728983
-0.38849965 0.34336177 0.80914026 0.04728983
-0.38879517 0.34729457 0.80448133 0.04728983
-0.39656129 0.34346318 0.80902004 0.04728983
-0.396804 0.34729454 0.80448121 0.04728983
-0.36474469 0.32547924 0.83032572 0.04728983
-0.37276283 0.32541519 0.8304016 0.04728983
-0.38052875 0.3254151 0.83040136 0.04728983
-0.37260005 0.32172871 0.83476877 0.04728983
-0.38053367 0.32182762 0.83465147 0.04728983
-0.36461484 0.33298528 0.82143313 0.04728983
-0.36449814 0.33703658 0.81663358 0.04728983
-0.36461502 0.32949543 0.82556766 0.04728983
-0.37243029 0.33303091 0.82137907 0.04728983
-0.37262186 0.33700612 0.81666964 0.04728983
-0.37253687 0.32953289 0.82552338 0.04728983
-0.38024423 0.33307657 0.82132506 0.04728983
-0.38063189 0.33702141 0.81665152 0.04728983
-0.38060257 0.32945773 0.82561237 0.04728983
-0.38854513 0.32541507 0.83040148 0.04728983
-0.39681208 0.32541519 0.8304013 0.04728983
-0.3884744 0.32177824 0.83471006 0.04728983
-0.39659068 0.32180274 0.83468109 0.04728983
-0.40457794 0.3254151 0.83040136 0.04728983
-0.40470594 0.32182762 0.83465147 0.04728983
-0.38840434 0.33298528 0.82143313 0.04728983
-0.38864136 0.33703622 0.81663406 0.04728983
-0.38852438 0.32949543 0.82556766 0.04728983
-0.39659736 0.33307657 0.82132506 0.04728983
-0.3966428 0.33705252 0.81661463 0.04728983
-0.39644483 0.32953289 0.82552338 0.04728983
-0.40475968 0.33298528 0.82143313 0.04728983
-0.40451315 0.32945773 0.82561237 0.04728983
-0.30858773 0.34331068 0.80920106 0.04728983
-0.30870631 0.3472946 0.80448145 0.04728983
-0.31663671 0.34351337 0.80896091 0.04728983
-0.31671518 0.34729457 0.80448133 0.04728983
-0.32459092 0.34338713 0.80911052 0.04728983
-0.32472405 0.34729457 0.80448133 0.04728983
-0.33254147 0.34338823 0.80910915 0.04728983
-0.33273295 0.34729457 0.80448133 0.04728983
-0.34059295 0.3434391 0.80904889 0.04728983
-0.34074184 0.34729457 0.80448133 0.04728983
-0.3485446 0.34341311 0.80907965 0.04728983
-0.34875068 0.34729457 0.80448133 0.04728983
-0.31665063 0.32547927 0.83032572 0.04728983
-0.31631827 0.3330766 0.82132506 0.04728983
-0.31657958 0.33708337 0.81657815 0.04728983
-0.31664136 0.32953313 0.82552308 0.04728983
-0.32466435 0.32541519 0.8304016 0.04728983
-0.33268023 0.32535097 0.83047771 0.04728983
-0.32463509 0.32182768 0.83465147 0.04728983
-0.33257201 0.3217783 0.83471006 0.04728983
-0.34069765 0.32547927 0.83032572 0.04728983
-0.34871361 0.32541519 0.8304016 0.04728983
-0.34069014 0.32180274 0.83468109 0.04728983
-0.34880748 0.32182762 0.83465147 0.04728983
-0.32447004 0.33298528 0.82143313 0.04728983
-0.32446063 0.33702141 0.81665158 0.04728983
-0.32472092 0.32953289 0.82552338 0.04728983
-0.33267143 0.3330766 0.82132506 0.04728983
-0.33259067 0.33702129 0.8166517 0.04728983
-0.33278146 0.32945773 0.82561237 0.04728983
-0.34082535 0.33298528 0.82143313 0.04728983
-0.34072077 0.33702141 0.81665158 0.04728983
-0.34070581 0.32949546 0.82556766 0.04728983
-0.34864235 0.33303094 0.82137907 0.04728983
-0.34860533 0.33695927 0.81672519 0.04728983
-0.34862885 0.32953289 0.82552338 0.04728983
-0.35673168 0.32535097 0.83047771 0.04728983
-0.35655349 0.32180285 0.83468086 0.04728983
-0.35645783 0.33307657 0.82132506 0.04728983
-0.35648713 0.33708337 0.81657815 0.04728983
-0.35669205 0.32945773 0.82561237 0.04728983
-0.26066586 0.21483611 0.96140271 0.04728983
-0.26866147 0.21495639 0.96126026 0.04728983
-0.2766704 0.21489334 0.96133494 0.04728983
-0.28468114 0.21483129 0.96140844 0.04728983
-0.26050246 0.22975276 0.94373131 0.04728983
-0.26876709 0.22984752 0.94361907 0.04728983
-0.26053756 0.22242737 0.95240945 0.04728983
-0.26028025 0.22635096 0.9477613 0.04728983
-0.26055476 0.21900448 0.95646459 0.04728983
-0.26872727 0.22235629 0.95249367 0.04728983
-0.26845199 0.22642525 0.94767332 0.04728983
-0.26834542 0.2190045 0.95646453 0.04728983
-0.27672949 0.22975266 0.94373143 0.04728983
-0.28469485 0.22965811 0.94384342 0.04728983
-0.27670044 0.22239222 0.95245105 0.04728983
-0.27662149 0.22649953 0.94758534 0.04728983
-0.2761361 0.21900448 0.95646459 0.04728983
-0.2846725 0.22242737 0.95240945 0.04728983
-0.28429735 0.22635096 0.94776124 0.04728983
-0.28479239 0.21900448 0.95646459 0.04728983
-0.29249895 0.21495304 0.96126413 0.04728983
-0.30051726 0.21495342 0.96126372 0.04728983
-0.29267922 0.22984752 0.94361907 0.04728983
-0.30064449 0.22975266 0.94373143 0.04728983
-0.29265448 0.22224191 0.95262921 0.04728983
-0.29246682 0.22642525 0.9476732 0.04728983
-0.29258311 0.2190045 0.95646453 0.04728983
-0.30061558 0.2224987 0.95232493 0.04728983
-0.30063412 0.2264995 0.94758523 0.04728983
-0.30037376 0.21900448 0.95646459 0.04728983
-0.21246131 0.21495305 0.96126425 0.04728983
-0.22064127 0.21483611 0.96140271 0.04728983
-0.21267252 0.22975276 0.94373131 0.04728983
-0.22065926 0.22985469 0.94361055 0.04728983
-0.21270342 0.2224987 0.95232505 0.04728983
-0.21224605 0.22635096 0.9477613 0.04728983
-0.21207948 0.21900454 0.95646465 0.04728983
-0.22067048 0.22239171 0.95245183 0.04728983
-0.22042224 0.22642525 0.94767332 0.04728983
-0.22073579 0.21900454 0.95646465 0.04728983
-0.22864279 0.21495639 0.96126026 0.04728983
-0.23647712 0.21483341 0.96140593 0.04728983
-0.24447957 0.21489394 0.96133423 0.04728983
-0.25248012 0.21495305 0.96126425 0.04728983
-0.22831714 0.22965811 0.94384342 0.04728983
-0.23658746 0.22975276 0.94373131 0.04728983
-0.22864088 0.22228546 0.95257771 0.04728983
-0.22859621 0.22649953 0.94758534 0.04728983
-0.22852646 0.21900453 0.95646465 0.04728983
-0.23662156 0.22254202 0.95227367 0.04728983
-0.23626314 0.22635096 0.9477613 0.04728983
-0.23631708 0.21900448 0.95646459 0.04728983
-0.24485494 0.22984752 0.94361907 0.04728983
-0.25251886 0.22965072 0.94385219 0.04728983
-0.24459024 0.22235629 0.95249367 0.04728983
-0.24443713 0.22642525 0.94767332 0.04728983
-0.24497339 0.21900448 0.95646459 0.04728983
-0.25256449 0.22239222 0.95245105 0.04728983
-0.2526089 0.22649953 0.94758534 0.04728983
-0.25276411 0.2190045 0.95646453 0.04728983
-0.15695438 0.22642526 0.94767332 0.04728983
-0.16460492 0.21477908 0.96147037 0.04728983
-0.17262225 0.21508104 0.96111274 0.04728983
-0.18043958 0.2147142 0.96154726 0.04728983
-0.18845315 0.21507309 0.9611221 0.04728983
-0.16484258 0.22975278 0.94373131 0.04728983
-0.17283541 0.22985472 0.94361055 0.04728983
-0.16464175 0.22239196 0.95245153 0.04728983
-0.16467345 0.22642526 0.94767332 0.04728983
-0.16446979 0.21900453 0.95646465 0.04728983
-0.17284562 0.22254202 0.95227367 0.04728983
-0.17239252 0.22642526 0.94767332 0.04728983
-0.17226048 0.21900454 0.95646465 0.04728983
-0.18048151 0.22965813 0.94384342 0.04728983
-0.18875757 0.22975278 0.94373131 0.04728983
-0.18836625 0.2336095 0.93916249 0.04728983
-0.18057378 0.22224194 0.95262933 0.04728983
-0.18096927 0.22642526 0.94767332 0.04728983
-0.18091679 0.21900454 0.95646465 0.04728983
-0.18857069 0.2224987 0.95232505 0.04728983
-0.18868834 0.22642526 0.94767332 0.04728983
-0.18870746 0.21900453 0.95646465 0.04728983
-0.19645247 0.21483342 0.96140593 0.04728983
-0.20445785 0.21489394 0.96133423 0.04728983
-0.19674732 0.22985472 0.94361055 0.04728983
-0.20439933 0.22965813 0.94384342 0.04728983
-0.19631837 0.23371053 0.93904281 0.04728983
-0.20481701 0.23371053 0.93904281 0.04728983
-0.19653453 0.22239171 0.95245183 0.04728983
-0.19640738 0.22642525 0.94767332 0.04728983
-0.19649813 0.21900454 0.95646465 0.04728983
-0.20450175 0.22228546 0.95257771 0.04728983
-0.20458359 0.22649953 0.94758534 0.04728983
-0.20428881 0.21900453 0.95646465 0.04728983
-0.1085939 0.21500844 0.96119875 0.04728983
-0.11658385 0.21489312 0.96133536 0.04728983
-0.12457753 0.21477909 0.96147037 0.04728983
-0.10847154 0.22975279 0.94373143 0.04728983
-0.10861182 0.22239199 0.95245153 0.04728983
-0.10892463 0.22642529 0.94767344 0.04728983
-0.10820381 0.21900454 0.95646465 0.04728983
-0.11675426 0.22984755 0.94361925 0.04728983
-0.12438648 0.22965074 0.94385237 0.04728983
-0.11636981 0.22239199 0.95245153 0.04728983
-0.11664369 0.22642526 0.94767332 0.04728983
-0.11686013 0.21900454 0.95646465 0.04728983
-0.12479127 0.22249871 0.95232505 0.04728983
-0.12436275 0.22642526 0.94767332 0.04728983
-0.12465081 0.21900453 0.95646471 0.04728983
-0.13260971 0.21508104 0.96111274 0.04728983
-0.14040898 0.2147142 0.96154726 0.04728983
-0.14860997 0.21500838 0.96119875 0.04728983
-0.1566056 0.21489312 0.96133536 0.04728983
-0.13238652 0.22975278 0.94373131 0.04728983
-0.14092758 0.22975278 0.94373131 0.04728983
-0.13251331 0.22227271 0.95259285 0.04728983
-0.13293949 0.22642526 0.94767332 0.04728983
-0.13244149 0.21900454 0.95646465 0.04728983
-0.14050578 0.22239199 0.95245153 0.04728983
-0.14065857 0.22642526 0.94767332 0.04728983
-0.14109778 0.21900454 0.95646465 0.04728983
-0.14861454 0.22975278 0.94373131 0.04728983
-0.1563015 0.22975278 0.94373131 0.04728983
-0.14871418 0.22254202 0.95227379 0.04728983
-0.14837764 0.22642526 0.94767332 0.04728983
-0.14888845 0.21900453 0.95646465 0.04728983
-0.15643333 0.22224194 0.95262933 0.04728983
-0.15667912 0.21900454 0.95646465 0.04728983
-0.26861534 0.134784 1.0562398 0.04728983
-0.26871648 0.12729509 1.0651121 0.04728983
-0.26866078 0.13145189 1.0601873 0.04728983
-0.27658138 0.13478383 1.05624 0.04728983
-0.28453979 0.13465601 1.0563915 0.04728983
-0.27667001 0.12724522 1.0651712 0.04728983
-0.27633685 0.1314519 1.0601873 0.04728983
-0.2846249 0.12719573 1.0652299 0.04728983
-0.28401288 0.1314519 1.0601875 0.04728983
-0.29251477 0.13478385 1.0562401 0.04728983
-0.30048621 0.13491152 1.0560888 0.04728983
-0.2925767 0.12724523 1.0651712 0.04728983
-0.2926484 0.1314519 1.0601875 0.04728983
-0.30053777 0.12709603 1.065348 0.04728983
-0.30128393 0.1314519 1.0601875 0.04728983
-0.26872754 0.14210576 1.0475657 0.04728983
-0.26832241 0.13891782 1.0513425 0.04728983
-0.27681088 0.14219652 1.0474582 0.04728983
-0.27643409 0.13900924 1.0512341 0.04728983
-0.2843948 0.14219652 1.0474583 0.04728983
-0.28494969 0.13882643 1.0514507 0.04728983
-0.29247487 0.14228725 1.0473508 0.04728983
-0.29306138 0.13891783 1.0513425 0.04728983
-0.30096227 0.14210579 1.0475658 0.04728983
-0.3006734 0.13891783 1.0513426 0.04728983
-0.2122165 0.13478376 1.0562398 0.04728983
-0.22019944 0.13491143 1.0560886 0.04728983
-0.21233051 0.12739405 1.0649945 0.04728983
-0.21300957 0.13145186 1.0601871 0.04728983
-0.2205184 0.12729506 1.065112 0.04728983
-0.22068562 0.13145187 1.0601872 0.04728983
-0.22846621 0.13478397 1.0562396 0.04728983
-0.23673637 0.13465598 1.0563912 0.04728983
-0.228709 0.12719572 1.0652297 0.04728983
-0.22836165 0.13145187 1.0601872 0.04728983
-0.23666383 0.12724522 1.065171 0.04728983
-0.23603767 0.13145187 1.0601872 0.04728983
-0.24471819 0.13478382 1.0562398 0.04728983
-0.25236562 0.13478382 1.05624 0.04728983
-0.24461564 0.127096 1.0653478 0.04728983
-0.24467321 0.13145187 1.0601873 0.04728983
-0.25257143 0.12724522 1.065171 0.04728983
-0.25330874 0.13145189 1.0601873 0.04728983
-0.2131355 0.13891777 1.0513421 0.04728983
-0.22074747 0.13891777 1.0513421 0.04728983
-0.22835948 0.13891777 1.0513421 0.04728983
-0.23699561 0.14219649 1.0474581 0.04728983
-0.23647529 0.13900921 1.051234 0.04728983
-0.24457948 0.14219649 1.0474582 0.04728983
-0.24498264 0.13882639 1.0514506 0.04728983
-0.25216335 0.14219649 1.0474582 0.04728983
-0.25309843 0.1389178 1.0513424 0.04728983
-0.26034284 0.13491151 1.0560887 0.04728983
-0.260553 0.12058917 1.0730565 0.04728983
-0.26052323 0.12739407 1.0649949 0.04728983
-0.26098478 0.13145189 1.0601873 0.04728983
-0.26024672 0.14228722 1.0473506 0.04728983
-0.26071042 0.13891782 1.0513425 0.04728983
-0.26058292 0.054200184 1.1517078 0.04728983
-0.26892155 0.054200184 1.1517078 0.04728983
-0.27677283 0.054341227 1.1515406 0.04728983
-0.28455549 0.054200187 1.1517079 0.04728983
-0.26077935 0.068788253 1.1344252 0.04728983
-0.2689929 0.068788253 1.1344252 0.04728983
-0.26074609 0.07639046 1.1254189 0.04728983
-0.26039082 0.080143996 1.1209719 0.04728983
-0.26042113 0.072601967 1.129907 0.04728983
-0.26889443 0.07639046 1.1254189 0.04728983
-0.26850691 0.080143996 1.1209719 0.04728983
-0.26860192 0.072601989 1.1299071 0.04728983
-0.26055071 0.062034842 1.142426 0.04728983
-0.26053375 0.065905005 1.137841 0.04728983
-0.2605657 0.05813336 1.147048 0.04728983
-0.26882219 0.062034842 1.1424261 0.04728983
-0.26822257 0.06576734 1.1380041 0.04728983
-0.26831672 0.05799346 1.1472138 0.04728983
-0.27720642 0.06878826 1.1344253 0.04728983
-0.28541994 0.06878826 1.1344253 0.04728983
-0.27704272 0.07639046 1.1254189 0.04728983
-0.27662307 0.08014401 1.120972 0.04728983
-0.27643073 0.072429329 1.1301117 0.04728983
-0.28519106 0.07639046 1.1254189 0.04728983
-0.2847392 0.08014401 1.120972 0.04728983
-0.28428319 0.072601996 1.1299071 0.04728983
-0.27709362 0.062034845 1.1424261 0.04728983
-0.27598152 0.065905005 1.1378411 0.04728983
-0.27613848 0.058133364 1.1470482 0.04728983
-0.28488046 0.062173624 1.1422617 0.04728983
-0.2842198 0.065905005 1.1378412 0.04728983
-0.28444341 0.058133364 1.1470482 0.04728983
-0.261379 0.051230285 1.1552262 0.04728983
-0.26869762 0.051230285 1.1552262 0.04728983
-0.27601624 0.051230285 1.1552262 0.04728983
-0.28438038 0.051230285 1.1552262 0.04728983
-0.2923415 0.054059148 1.1518749 0.04728983
-0.30019158 0.054200202 1.151708 0.04728983
-0.29260683 0.068788268 1.1344254 0.04728983
-0.29979366 0.068788268 1.1344254 0.04728983
-0.2933394 0.076390468 1.125419 0.04728983
-0.29250893 0.07997407 1.1211734 0.04728983
-0.29246405 0.072601996 1.1299071 0.04728983
-0.29260159 0.062034845 1.1424261 0.04728983
-0.29245809 0.065905012 1.1378412 0.04728983
-0.2927483 0.058133364 1.1470482 0.04728983
-0.30032593 0.061896067 1.1425906 0.04728983
-0.30069634 0.065905012 1.1378412 0.04728983
-0.30105323 0.058133367 1.1470482 0.04728983
-0.29274452 0.051230289 1.1552263 0.04728983
-0.30110866 0.051230289 1.1552263 0.04728983
-0.26935542 0.11613513 1.0783333 0.04728983
-0.26856634 0.12043807 1.0732355 0.04728983
-0.27716285 0.11613513 1.0783333 0.04728983
-0.27657837 0.12048871 1.0731755 0.04728983
-0.28497022 0.11613513 1.0783333 0.04728983
-0.28459254 0.12043808 1.0732355 0.04728983
-0.26060262 0.10915808 1.0865989 0.04728983
-0.26030269 0.10207095 1.0949951 0.04728983
-0.2603679 0.10651319 1.0897323 0.04728983
-0.26945329 0.10915809 1.086599 0.04728983
-0.26856109 0.10207112 1.094995 0.04728983
-0.26825783 0.10651319 1.0897323 0.04728983
-0.2603316 0.094875753 1.1035191 0.04728983
-0.26044911 0.086643972 1.1132714 0.04728983
-0.26068109 0.091238372 1.1078284 0.04728983
-0.26832137 0.094875775 1.1035191 0.04728983
-0.26850942 0.086643972 1.1132714 0.04728983
-0.26870209 0.091238379 1.1078285 0.04728983
-0.26064932 0.098489627 1.0992379 0.04728983
-0.26860809 0.098489642 1.0992379 0.04728983
-0.27732056 0.10915809 1.086599 0.04728983
-0.27681947 0.10207095 1.0949953 0.04728983
-0.27614775 0.10651319 1.0897323 0.04728983
-0.28518778 0.10915809 1.086599 0.04728983
-0.28474751 0.10207095 1.0949953 0.04728983
-0.28403771 0.10651319 1.0897323 0.04728983
-0.27631113 0.094875775 1.1035192 0.04728983
-0.27656981 0.086643972 1.1132714 0.04728983
-0.27672303 0.091238379 1.1078286 0.04728983
-0.28430089 0.094875783 1.1035192 0.04728983
-0.28463018 0.086643979 1.1132714 0.04728983
-0.28474399 0.091238387 1.1078286 0.04728983
-0.27656686 0.098489642 1.0992379 0.04728983
-0.2845256 0.098489642 1.0992379 0.04728983
-0.2605879 0.1126577 1.082453 0.04728983
-0.26842514 0.11265772 1.082453 0.04728983
-0.2762624 0.11265772 1.0824531 0.04728983
-0.28443402 0.11279181 1.0822942 0.04728983
-0.29277766 0.11613514 1.0783334 0.04728983
-0.29260814 0.12038785 1.0732951 0.04728983
-0.30058509 0.11613514 1.0783334 0.04728983
-0.30061966 0.12043808 1.0732356 0.04728983
-0.29305506 0.1091581 1.086599 0.04728983
-0.29267558 0.10207098 1.0949953 0.04728983
-0.29244387 0.1066114 1.0896162 0.04728983
-0.30092233 0.1091581 1.0865991 0.04728983
-0.3006036 0.10207098 1.0949953 0.04728983
-0.30080292 0.10651319 1.0897325 0.04728983
-0.29229069 0.094875783 1.1035196 0.04728983
-0.29269055 0.086643979 1.1132715 0.04728983
-0.29276496 0.091238387 1.1078286 0.04728983
-0.30028042 0.094875783 1.1035196 0.04728983
-0.30075091 0.086643979 1.1132715 0.04728983
-0.3007859 0.091238387 1.1078286 0.04728983
-0.2924844 0.098489642 1.0992379 0.04728983
-0.30044317 0.098489642 1.099238 0.04728983
-0.29258874 0.11265772 1.0824531 0.04728983
-0.30042598 0.11265772 1.0824531 0.04728983
-0.21263562 0.054200176 1.1517074 0.04728983
-0.22097427 0.054200176 1.1517075 0.04728983
-0.21252488 0.068788238 1.1344249 0.04728983
-0.21971169 0.068788238 1.1344249 0.04728983
-0.21185616 0.076390445 1.1254187 0.04728983
-0.21304809 0.080143973 1.1209718 0.04728983
-0.21270104 0.072601952 1.1299068 0.04728983
-0.22000447 0.076390445 1.1254187 0.04728983
-0.22084719 0.080314167 1.1207702 0.04728983
-0.22088186 0.072601959 1.1299069 0.04728983
-0.21298984 0.062034827 1.1424258 0.04728983
-0.21213502 0.065904982 1.1378407 0.04728983
-0.21225038 0.057993449 1.1472136 0.04728983
-0.22078587 0.062173612 1.1422614 0.04728983
-0.22037327 0.06590499 1.1378407 0.04728983
-0.22008024 0.058133353 1.1470478 0.04728983
-0.22060382 0.05123027 1.155226 0.04728983
-0.22883248 0.054341219 1.1515405 0.04728983
-0.23660819 0.05420018 1.1517076 0.04728983
-0.24438724 0.05405914 1.1518748 0.04728983
-0.25224426 0.054200184 1.1517076 0.04728983
-0.22792524 0.068788245 1.1344249 0.04728983
-0.23613876 0.068788245 1.134425 0.04728983
-0.22815278 0.076390445 1.1254187 0.04728983
-0.22860265 0.080143996 1.1209718 0.04728983
-0.22874171 0.07277485 1.1297021 0.04728983
-0.23630111 0.076390445 1.1254187 0.04728983
-0.23671877 0.080143996 1.1209718 0.04728983
-0.2365604 0.072601967 1.129907 0.04728983
-0.22849776 0.062034838 1.1424258 0.04728983
-0.22861153 0.065904997 1.1378407 0.04728983
-0.22838515 0.058133356 1.1470479 0.04728983
-0.23621292 0.061896063 1.1425903 0.04728983
-0.23684978 0.065904997 1.1378409 0.04728983
-0.2366901 0.058133356 1.1470479 0.04728983
-0.24435231 0.068788253 1.1344252 0.04728983
-0.25256583 0.068788253 1.1344252 0.04728983
-0.24444944 0.076390453 1.1254188 0.04728983
-0.24483491 0.080143996 1.1209719 0.04728983
-0.24474125 0.072601967 1.129907 0.04728983
-0.25259775 0.076390453 1.1254188 0.04728983
-0.2526128 0.08014378 1.1209722 0.04728983
-0.25258109 0.072601736 1.1299073 0.04728983
-0.24400778 0.062034842 1.1424259 0.04728983
-0.24508807 0.065904997 1.1378409 0.04728983
-0.24499503 0.058133356 1.147048 0.04728983
-0.25227922 0.062034842 1.1424259 0.04728983
-0.25284824 0.066042669 1.1376778 0.04728983
-0.25281796 0.05827326 1.1468823 0.04728983
-0.22792244 0.051230274 1.155226 0.04728983
-0.23628657 0.051230274 1.155226 0.04728983
-0.24465071 0.051230274 1.155226 0.04728983
-0.25301486 0.051230278 1.1552261 0.04728983
-0.21275169 0.11613508 1.0783329 0.04728983
-0.21247531 0.12048867 1.0731754 0.04728983
-0.22055909 0.1161351 1.078333 0.04728983
-0.220727 0.12038782 1.0732949 0.04728983
-0.21241567 0.10915805 1.0865986 0.04728983
-0.21207501 0.10207093 1.0949949 0.04728983
-0.21302822 0.10651317 1.0897322 0.04728983
-0.22028293 0.10915805 1.0865986 0.04728983
-0.2203508 0.10220814 1.0948325 0.04728983
-0.22091818 0.10651318 1.0897322 0.04728983
-0.212393 0.094875731 1.103519 0.04728983
-0.21259008 0.086643964 1.1132712 0.04728983
-0.21255529 0.09123835 1.1078281 0.04728983
-0.22038279 0.094875731 1.103519 0.04728983
-0.22065045 0.086643964 1.1132712 0.04728983
-0.22057626 0.091238357 1.1078283 0.04728983
-0.21289672 0.098489605 1.0992376 0.04728983
-0.2208555 0.09848962 1.0992377 0.04728983
-0.21258365 0.11265783 1.0824523 0.04728983
-0.22074737 0.11265769 1.0824527 0.04728983
-0.22836651 0.1161351 1.078333 0.04728983
-0.22874252 0.12043807 1.0732354 0.04728983
-0.23617393 0.11613511 1.0783331 0.04728983
-0.23651302 0.12043807 1.0732355 0.04728983
-0.24398135 0.11613511 1.0783331 0.04728983
-0.24452499 0.12028659 1.0734149 0.04728983
-0.25178874 0.11613511 1.0783331 0.04728983
-0.25254107 0.12043807 1.0732355 0.04728983
-0.22815019 0.10915807 1.0865988 0.04728983
-0.22859049 0.10207093 1.094995 0.04728983
-0.2288081 0.10651318 1.0897322 0.04728983
-0.23601745 0.10915808 1.0865989 0.04728983
-0.2365185 0.10207094 1.094995 0.04728983
-0.23669805 0.10651319 1.0897322 0.04728983
-0.22837253 0.094875745 1.1035191 0.04728983
-0.22871086 0.086643964 1.1132712 0.04728983
-0.22859721 0.091238357 1.1078283 0.04728983
-0.23636232 0.094875745 1.1035191 0.04728983
-0.23677121 0.086643964 1.1132712 0.04728983
-0.23661819 0.091238365 1.1078284 0.04728983
-0.22881426 0.09848962 1.0992377 0.04728983
-0.23677301 0.09848962 1.0992377 0.04728983
-0.24388471 0.10915808 1.0865989 0.04728983
-0.24444658 0.10207094 1.0949951 0.04728983
-0.24458799 0.10651319 1.0897322 0.04728983
-0.25175196 0.10915808 1.0865989 0.04728983
-0.25237462 0.10207095 1.0949951 0.04728983
-0.25247794 0.10651319 1.0897323 0.04728983
-0.24435209 0.094875753 1.1035191 0.04728983
-0.24457911 0.086582229 1.1133444 0.04728983
-0.24463914 0.091238372 1.1078284 0.04728983
-0.25234184 0.094875753 1.1035191 0.04728983
-0.25238866 0.086643972 1.1132712 0.04728983
-0.25266013 0.091238372 1.1078284 0.04728983
-0.24473178 0.09848962 1.0992377 0.04728983
-0.25269055 0.098489627 1.0992378 0.04728983
-0.2285846 0.1126577 1.0824527 0.04728983
-0.23673353 0.11252344 1.0826117 0.04728983
-0.24491344 0.1126577 1.0824529 0.04728983
-0.25275069 0.1126577 1.082453 0.04728983
-0.26057205 0.11613512 1.0783331 0.04728983
-0.26864749 0.18271361 0.99945778 0.04728983
-0.26836962 0.18641782 0.9950695 0.04728983
-0.27678829 0.18271303 0.99945843 0.04728983
-0.27647471 0.18641782 0.9950695 0.04728983
-0.28477404 0.18924929 0.99171513 0.04728983
-0.28470141 0.18275721 0.99940616 0.04728983
-0.28457981 0.1864178 0.99506938 0.04728983
-0.26852524 0.17534542 1.0081869 0.04728983
-0.26862335 0.16834332 1.0164821 0.04728983
-0.26892811 0.17898256 1.0038778 0.04728983
-0.27651164 0.17521232 1.0083444 0.04728983
-0.27671278 0.16841413 1.0163983 0.04728983
-0.28472483 0.17521173 1.0083449 0.04728983
-0.28463691 0.16827072 1.0165682 0.04728983
-0.27619642 0.17898256 1.0038778 0.04728983
-0.28437331 0.17898256 1.0038778 0.04728983
-0.29262525 0.18254809 0.99965382 0.04728983
-0.29268494 0.1864178 0.99506938 0.04728983
-0.30063504 0.18935391 0.99159116 0.04728983
-0.3007504 0.18287855 0.99926227 0.04728983
-0.30079007 0.1864178 0.99506938 0.04728983
-0.30840868 0.18924111 0.99172473 0.04728983
-0.30867592 0.18266973 0.99950969 0.04728983
-0.30889517 0.1864178 0.99506938 0.04728983
-0.29270789 0.1752567 1.0082918 0.04728983
-0.29254201 0.16834335 1.0164821 0.04728983
-0.30046907 0.17516766 1.0083972 0.04728983
-0.3006295 0.16841413 1.0163983 0.04728983
-0.29255015 0.17898256 1.0038776 0.04728983
-0.30072704 0.17898256 1.0038778 0.04728983
-0.30845204 0.17521173 1.0083452 0.04728983
-0.30874044 0.16841364 1.0163989 0.04728983
-0.3089039 0.17898256 1.0038778 0.04728983
-0.26042554 0.1494846 1.038824 0.04728983
-0.26856381 0.14936082 1.0389707 0.04728983
-0.26060209 0.15656792 1.0304322 0.04728983
-0.26060572 0.16136841 1.0247451 0.04728983
-0.26017481 0.15348355 1.0340863 0.04728983
-0.26855409 0.1566557 1.0303283 0.04728983
-0.26872325 0.16123 1.024909 0.04728983
-0.2681542 0.15357199 1.0339816 0.04728983
-0.27640954 0.1494845 1.0388242 0.04728983
-0.28425184 0.149608 1.0386779 0.04728983
-0.27650365 0.1567435 1.0302243 0.04728983
-0.27660125 0.16150586 1.0245823 0.04728983
-0.27652833 0.15339512 1.0341911 0.04728983
-0.28484905 0.15656793 1.0304323 0.04728983
-0.28448531 0.16141427 1.0246909 0.04728983
-0.28450772 0.15348355 1.0340865 0.04728983
-0.29239127 0.14948465 1.0388242 0.04728983
-0.3005341 0.14936085 1.0389708 0.04728983
-0.29279858 0.15665573 1.0303284 0.04728983
-0.29237178 0.1613223 1.0247998 0.04728983
-0.29248464 0.15357201 1.0339818 0.04728983
-0.30025843 0.15665573 1.0303284 0.04728983
-0.30048504 0.1613678 1.0247459 0.04728983
-0.30086371 0.15339513 1.0341914 0.04728983
-0.26068005 0.14545105 1.0436025 0.04728983
-0.26823604 0.14545105 1.0436025 0.04728983
-0.276288 0.14554113 1.0434958 0.04728983
-0.2847409 0.14536101 1.0437093 0.04728983
-0.29279289 0.14545107 1.0436026 0.04728983
-0.30034882 0.14545107 1.0436026 0.04728983
-0.2605617 0.18946631 0.991458 0.04728983
-0.2686184 0.18924929 0.99171513 0.04728983
-0.27671316 0.18946631 0.991458 0.04728983
-0.29286456 0.18946631 0.991458 0.04728983
-0.26062274 0.20515238 0.97287488 0.04728983
-0.26043916 0.19732857 0.9821437 0.04728983
-0.26041856 0.20176964 0.97688252 0.04728983
-0.26854712 0.20515236 0.97287482 0.04728983
-0.26843899 0.19732855 0.9821437 0.04728983
-0.26859879 0.20157421 0.97711402 0.04728983
-0.26060653 0.20854665 0.96885371 0.04728983
-0.26871312 0.20881203 0.96853924 0.04728983
-0.26037037 0.19361053 0.98654836 0.04728983
-0.26842514 0.19382556 0.98629361 0.04728983
-0.27647144 0.20515238 0.97287488 0.04728983
-0.27643877 0.19732857 0.98214358 0.04728983
-0.2767781 0.20161198 0.9770692 0.04728983
-0.28439578 0.20515236 0.97287482 0.04728983
-0.28443867 0.19732855 0.9821437 0.04728983
-0.28473651 0.20161146 0.97706985 0.04728983
-0.27660978 0.20850159 0.96890706 0.04728983
-0.28449118 0.20881203 0.96853924 0.04728983
-0.27644175 0.19361053 0.98654836 0.04728983
-0.2844924 0.19382556 0.98629361 0.04728983
-0.29232013 0.20515238 0.97287488 0.04728983
-0.29243851 0.19732857 0.98214358 0.04728983
-0.29269508 0.20161195 0.97706914 0.04728983
-0.30024448 0.20515236 0.97287482 0.04728983
-0.30043831 0.19732855 0.9821437 0.04728983
-0.30065355 0.20161143 0.97706985 0.04728983
-0.29260725 0.20861992 0.96876687 0.04728983
-0.30071554 0.20865709 0.96872288 0.04728983
-0.29251322 0.19361053 0.98654836 0.04728983
-0.30055967 0.19382556 0.98629361 0.04728983
-0.212566 0.18271361 0.99945778 0.04728983
-0.21253431 0.18641782 0.9950695 0.04728983
-0.22047561 0.18258196 0.9996137 0.04728983
-0.22063944 0.18641782 0.9950695 0.04728983
-0.21263082 0.17521232 1.0083447 0.04728983
-0.21269087 0.1682743 1.0165639 0.04728983
-0.22061084 0.1750783 1.0085033 0.04728983
-0.22078605 0.16834335 1.0164821 0.04728983
-0.21259859 0.17898259 1.0038779 0.04728983
-0.22077546 0.17898259 1.0038779 0.04728983
-0.22840135 0.18287855 0.99926239 0.04728983
-0.22874457 0.18641782 0.9950695 0.04728983
-0.23653276 0.18254811 0.99965382 0.04728983
-0.2368497 0.18641782 0.9950695 0.04728983
-0.24467987 0.18287855 0.99926239 0.04728983
-0.24495481 0.18641782 0.9950695 0.04728983
-0.25259146 0.18266974 0.99950969 0.04728983
-0.25215936 0.18641782 0.9950695 0.04728983
-0.22860691 0.1753802 1.0081458 0.04728983
-0.22869532 0.16841722 1.0163946 0.04728983
-0.23658489 0.17516766 1.0083975 0.04728983
-0.23661143 0.1682743 1.0165639 0.04728983
-0.22895232 0.17898259 1.0038779 0.04728983
-0.23622063 0.17898256 1.0038778 0.04728983
-0.24457113 0.17521173 1.0083452 0.04728983
-0.24470472 0.16834335 1.016482 0.04728983
-0.25255632 0.1752567 1.0082921 0.04728983
-0.25261194 0.1684172 1.0163945 0.04728983
-0.24439749 0.17898256 1.0038778 0.04728983
-0.25257435 0.17898256 1.0038778 0.04728983
-0.26050657 0.18271303 0.99945843 0.04728983
-0.26026449 0.18641782 0.9950695 0.04728983
-0.2605426 0.17504385 1.0085442 0.04728983
-0.26053205 0.16827428 1.0165638 0.04728983
-0.26075122 0.17898256 1.0038778 0.04728983
-0.212478 0.14948444 1.0388237 0.04728983
-0.22032931 0.14960794 1.0386775 0.04728983
-0.2126053 0.1566557 1.0303283 0.04728983
-0.21260884 0.16132228 1.0247998 0.04728983
-0.21288194 0.1533951 1.0341908 0.04728983
-0.22056049 0.1567435 1.0302242 0.04728983
-0.22048932 0.16123 1.024909 0.04728983
-0.22086778 0.15348354 1.0340861 0.04728983
-0.22845976 0.1494846 1.0388236 0.04728983
-0.23659356 0.14936079 1.0389702 0.04728983
-0.22889455 0.15656787 1.0304322 0.04728983
-0.22861549 0.16154177 1.0245397 0.04728983
-0.22835483 0.15348354 1.0340861 0.04728983
-0.23684977 0.15665568 1.0303283 0.04728983
-0.2367232 0.16132228 1.0247997 0.04728983
-0.23633745 0.15357198 1.0339813 0.04728983
-0.24444376 0.14948446 1.0388241 0.04728983
-0.25229055 0.14960796 1.0386778 0.04728983
-0.2443096 0.1566557 1.0303283 0.04728983
-0.24460624 0.16122998 1.024909 0.04728983
-0.24470513 0.15339512 1.0341909 0.04728983
-0.25226161 0.1567435 1.0302243 0.04728983
-0.25249198 0.16150585 1.0245823 0.04728983
-0.25268772 0.15348355 1.0340863 0.04728983
-0.21234803 0.14219648 1.0474581 0.04728983
-0.212952 0.14536096 1.0437088 0.04728983
-0.22043552 0.14228721 1.0473505 0.04728983
-0.22101131 0.14545104 1.0436022 0.04728983
-0.22890814 0.14210576 1.0475656 0.04728983
-0.22856727 0.14545104 1.0436022 0.04728983
-0.23612322 0.14545104 1.0436023 0.04728983
-0.2441785 0.14554113 1.0434957 0.04728983
-0.25262481 0.14536099 1.0437093 0.04728983
-0.21240543 0.1894584 0.99146742 0.04728983
-0.22044955 0.18924111 0.99172485 0.04728983
-0.22855695 0.18945839 0.99146742 0.04728983
-0.23660532 0.18924111 0.99172485 0.04728983
-0.24470854 0.18945839 0.99146742 0.04728983
-0.2527611 0.18924111 0.99172485 0.04728983
-0.21219626 0.20515242 0.972875 0.04728983
-0.21244016 0.19732858 0.9821437 0.04728983
-0.21267666 0.20176964 0.97688252 0.04728983
-0.22100107 0.20515242 0.972875 0.04728983
-0.22043999 0.19732858 0.98214376 0.04728983
-0.22061986 0.20145382 0.97725666 0.04728983
-0.2126134 0.20881204 0.96853936 0.04728983
-0.22048876 0.20850161 0.96890712 0.04728983
-0.21278594 0.19383338 0.98628438 0.04728983
-0.22078824 0.19361863 0.98653877 0.04728983
-0.22892541 0.20515238 0.97287488 0.04728983
-0.22843978 0.19732858 0.9821437 0.04728983
-0.22859062 0.20176964 0.97688252 0.04728983
-0.23684974 0.20515236 0.97287482 0.04728983
-0.23643966 0.19732858 0.98214376 0.04728983
-0.23653995 0.20145382 0.97725666 0.04728983
-0.22860928 0.20876722 0.96859246 0.04728983
-0.23671457 0.20865655 0.9687236 0.04728983
-0.22854085 0.19372202 0.98641634 0.04728983
-0.2365755 0.19372202 0.98641622 0.04728983
-0.24477407 0.20515238 0.97287488 0.04728983
-0.24443951 0.19732858 0.9821437 0.04728983
-0.24450456 0.20176964 0.97688252 0.04728983
-0.25269842 0.20515236 0.97287482 0.04728983
-0.25243932 0.19732858 0.98214376 0.04728983
-0.25245997 0.20145382 0.97725666 0.04728983
-0.24460523 0.20865709 0.96872288 0.04728983
-0.25249565 0.20865653 0.96872354 0.04728983
-0.24461015 0.19372202 0.98641628 0.04728983
-0.25235784 0.19382556 0.98629361 0.04728983
-0.16441996 0.13478374 1.0562397 0.04728983
-0.17240974 0.13491143 1.0560886 0.04728983
-0.16460872 0.12729503 1.0651115 0.04728983
-0.16503441 0.13145183 1.0601869 0.04728983
-0.17279314 0.1271957 1.0652291 0.04728983
-0.17271043 0.13145185 1.0601869 0.04728983
-0.18066964 0.13478391 1.0562396 0.04728983
-0.18893293 0.13465592 1.0563912 0.04728983
-0.18075106 0.12724519 1.0651705 0.04728983
-0.18038648 0.13145185 1.060187 0.04728983
-0.18869354 0.12709598 1.0653474 0.04728983
-0.18806249 0.13145185 1.060187 0.04728983
-0.16494891 0.14219646 1.0474579 0.04728983
-0.16460907 0.13891777 1.051342 0.04728983
-0.17253277 0.14219646 1.0474579 0.04728983
-0.17317255 0.13891776 1.051342 0.04728983
-0.18011662 0.14219646 1.0474578 0.04728983
-0.18078452 0.13891777 1.051342 0.04728983
-0.18820737 0.14228719 1.0473504 0.04728983
-0.18839651 0.13891777 1.051342 0.04728983
-0.19692159 0.13478376 1.0562397 0.04728983
-0.20456906 0.13478376 1.0562397 0.04728983
-0.19665866 0.1272452 1.0651706 0.04728983
-0.19669802 0.13145185 1.060187 0.04728983
-0.20437075 0.1272452 1.0651708 0.04728983
-0.20533356 0.13145186 1.0601871 0.04728983
-0.19667341 0.14210573 1.0475655 0.04728983
-0.19651645 0.13900918 1.0512338 0.04728983
-0.20476417 0.14219648 1.0474579 0.04728983
-0.2050156 0.13882637 1.0514504 0.04728983
-0.11662345 0.13478376 1.0562397 0.04728983
-0.12427089 0.13478376 1.0562397 0.04728983
-0.11641075 0.12729502 1.0651113 0.04728983
-0.11705929 0.13145183 1.0601869 0.04728983
-0.12481125 0.12705749 1.0653926 0.04728983
-0.12473531 0.13145183 1.0601869 0.04728983
-0.11660182 0.14219648 1.0474581 0.04728983
-0.11608271 0.13891777 1.0513421 0.04728983
-0.12513366 0.14219646 1.0474579 0.04728983
-0.12464619 0.13891777 1.0513421 0.04728983
-0.13226642 0.13491143 1.0560886 0.04728983
-0.14052059 0.13478391 1.0562396 0.04728983
-0.13303375 0.12724516 1.0651703 0.04728983
-0.13241133 0.13145183 1.0601869 0.04728983
-0.14074586 0.12724514 1.0651704 0.04728983
-0.14008735 0.13145183 1.0601869 0.04728983
-0.1487781 0.13465592 1.0563911 0.04728983
-0.15677252 0.13478374 1.0562397 0.04728983
-0.14837229 0.12048861 1.073175 0.04728983
-0.15661682 0.12038776 1.0732945 0.04728983
-0.14845794 0.12724514 1.0651704 0.04728983
-0.14872286 0.13145183 1.0601869 0.04728983
-0.15642692 0.12739401 1.064994 0.04728983
-0.15735839 0.13145183 1.0601869 0.04728983
-0.13271752 0.14219646 1.0474579 0.04728983
-0.13320966 0.13891777 1.0513421 0.04728983
-0.14030138 0.14219646 1.0474579 0.04728983
-0.14082165 0.13891777 1.0513421 0.04728983
-0.14839622 0.14228719 1.0473504 0.04728983
-0.14843363 0.13891777 1.0513421 0.04728983
-0.15685406 0.14210573 1.0475655 0.04728983
-0.15604562 0.13891777 1.0513421 0.04728983
-0.16473216 0.086643949 1.1132711 0.04728983
-0.17279251 0.086643949 1.1132711 0.04728983
-0.18085286 0.086643949 1.1132711 0.04728983
-0.18866554 0.086705208 1.1131986 0.04728983
-0.19646937 0.086643957 1.1132712 0.04728983
-0.20452973 0.086643957 1.1132712 0.04728983
-0.16468832 0.054200172 1.1517072 0.04728983
-0.17302699 0.054200172 1.1517073 0.04728983
-0.18089215 0.054341216 1.1515402 0.04728983
-0.1642704 0.06878823 1.1344247 0.04728983
-0.17248392 0.06878823 1.1344247 0.04728983
-0.16500333 0.076390423 1.1254184 0.04728983
-0.16435134 0.080143958 1.1209717 0.04728983
-0.16463731 0.072601721 1.1299071 0.04728983
-0.17315164 0.076390423 1.1254184 0.04728983
-0.17246746 0.080143966 1.1209717 0.04728983
-0.17247732 0.072601952 1.1299068 0.04728983
-0.16496158 0.062173594 1.1422609 0.04728983
-0.16476502 0.065904975 1.1378405 0.04728983
-0.16402201 0.058133341 1.1470475 0.04728983
-0.1720999 0.061896037 1.1425898 0.04728983
-0.17300327 0.065904975 1.1378405 0.04728983
-0.17232694 0.058133349 1.1470475 0.04728983
-0.18069746 0.068788238 1.1344248 0.04728983
-0.18891098 0.068788238 1.1344248 0.04728983
-0.18129995 0.076390423 1.1254184 0.04728983
-0.1805836 0.080143966 1.1209717 0.04728983
-0.18028869 0.072429292 1.1301113 0.04728983
-0.18944827 0.076390423 1.1254184 0.04728983
-0.18869971 0.080143966 1.1209718 0.04728983
-0.18815859 0.072601952 1.1299068 0.04728983
-0.18124151 0.065904975 1.1378405 0.04728983
-0.18063188 0.058133349 1.1470476 0.04728983
-0.18901086 0.066042647 1.1376774 0.04728983
-0.18893678 0.058133349 1.1470476 0.04728983
-0.16519146 0.051230267 1.1552258 0.04728983
-0.17251007 0.051230267 1.1552258 0.04728983
-0.17982867 0.051230267 1.1552258 0.04728983
-0.19595829 0.054200172 1.1517073 0.04728983
-0.20429695 0.054200176 1.1517074 0.04728983
-0.1971245 0.068788238 1.1344249 0.04728983
-0.20533803 0.068788238 1.1344249 0.04728983
-0.19657807 0.07639043 1.1254185 0.04728983
-0.19681583 0.080143966 1.1209718 0.04728983
-0.19633943 0.072601952 1.1299068 0.04728983
-0.20370781 0.07639043 1.1254185 0.04728983
-0.20493196 0.080143966 1.1209718 0.04728983
-0.20452023 0.072601952 1.1299068 0.04728983
-0.19644691 0.062034819 1.1424257 0.04728983
-0.19612741 0.065767311 1.1380038 0.04728983
-0.19724169 0.058133353 1.1470478 0.04728983
-0.20471835 0.062034819 1.1424257 0.04728983
-0.20389673 0.065904982 1.1378407 0.04728983
-0.20507155 0.058273256 1.1468819 0.04728983
-0.15614799 0.11613507 1.0783327 0.04728983
-0.15734491 0.10915802 1.0865984 0.04728983
-0.1565787 0.1020709 1.0949944 0.04728983
-0.15582617 0.10651314 1.0897318 0.04728983
-0.15718539 0.098489583 1.0992373 0.04728983
-0.15674454 0.11265764 1.0824524 0.04728983
-0.16395541 0.11613507 1.0783328 0.04728983
-0.16486406 0.12028653 1.0734144 0.04728983
-0.17176281 0.11613507 1.0783328 0.04728983
-0.17289343 0.12043803 1.0732353 0.04728983
-0.18054613 0.11613508 1.0783328 0.04728983
-0.18066391 0.12043803 1.0732353 0.04728983
-0.18932946 0.11613508 1.0783329 0.04728983
-0.18843442 0.12043804 1.0732353 0.04728983
-0.16521217 0.10915804 1.0865985 0.04728983
-0.16450675 0.1020709 1.0949944 0.04728983
-0.16424602 0.10661135 1.0896155 0.04728983
-0.17307942 0.10915804 1.0865985 0.04728983
-0.17243479 0.10207091 1.0949944 0.04728983
-0.17259133 0.10651314 1.0897319 0.04728983
-0.16445446 0.094875723 1.1035188 0.04728983
-0.16442953 0.091238342 1.107828 0.04728983
-0.17244421 0.094875731 1.1035188 0.04728983
-0.17245048 0.091238342 1.107828 0.04728983
-0.16514415 0.098489583 1.0992373 0.04728983
-0.17310293 0.098489597 1.0992374 0.04728983
-0.18094666 0.10915804 1.0865985 0.04728983
-0.18036282 0.10207091 1.0949945 0.04728983
-0.18048127 0.10651314 1.0897321 0.04728983
-0.18881392 0.10915804 1.0865985 0.04728983
-0.18829085 0.10207091 1.0949945 0.04728983
-0.18883018 0.10641494 1.0898484 0.04728983
-0.18043397 0.094875731 1.1035188 0.04728983
-0.18047145 0.091238342 1.107828 0.04728983
-0.18842374 0.094875731 1.1035188 0.04728983
-0.18849242 0.09123835 1.1078281 0.04728983
-0.18106169 0.098489597 1.0992374 0.04728983
-0.18902045 0.098489597 1.0992376 0.04728983
-0.16458178 0.11265764 1.0824524 0.04728983
-0.17241901 0.11265764 1.0824524 0.04728983
-0.18025625 0.11265764 1.0824524 0.04728983
-0.18809348 0.11265764 1.0824524 0.04728983
-0.19713688 0.11613508 1.0783329 0.04728983
-0.19645706 0.12058914 1.0730562 0.04728983
-0.20494428 0.11613508 1.0783329 0.04728983
-0.20445968 0.12043804 1.0732353 0.04728983
-0.19668117 0.10915805 1.0865986 0.04728983
-0.19621891 0.10207091 1.0949947 0.04728983
-0.19724834 0.10651314 1.0897321 0.04728983
-0.20454842 0.10915805 1.0865986 0.04728983
-0.20414697 0.10207091 1.0949947 0.04728983
-0.20513827 0.10651316 1.0897321 0.04728983
-0.1964135 0.094875731 1.103519 0.04728983
-0.19651337 0.09123835 1.1078281 0.04728983
-0.20440324 0.094875731 1.103519 0.04728983
-0.20453434 0.09123835 1.1078281 0.04728983
-0.19697922 0.098489605 1.0992376 0.04728983
-0.20493796 0.098489605 1.0992376 0.04728983
-0.19627804 0.11279173 1.0822936 0.04728983
-0.20441981 0.11265764 1.0824524 0.04728983
-0.11674108 0.054200154 1.1517071 0.04728983
-0.12507972 0.054200154 1.1517071 0.04728983
-0.11704264 0.068788216 1.1344244 0.04728983
-0.12525617 0.068788223 1.1344246 0.04728983
-0.11611342 0.076390401 1.1254182 0.04728983
-0.11632962 0.080143951 1.1209712 0.04728983
-0.11657649 0.072601922 1.1299062 0.04728983
-0.12426173 0.076390408 1.1254182 0.04728983
-0.12406912 0.079974018 1.1211727 0.04728983
-0.12475729 0.072601937 1.1299063 0.04728983
-0.11625957 0.061896019 1.1425897 0.04728983
-0.11693644 0.066042617 1.1376773 0.04728983
-0.11626875 0.058133326 1.1470474 0.04728983
-0.1240717 0.062034808 1.1424253 0.04728983
-0.12403236 0.065767288 1.1380035 0.04728983
-0.12457366 0.058133326 1.1470475 0.04728983
-0.11709771 0.051230252 1.1552255 0.04728983
-0.12441633 0.051230252 1.1552255 0.04728983
-0.13295186 0.054341193 1.1515399 0.04728983
-0.14013889 0.054059114 1.1518743 0.04728983
-0.14801101 0.054200154 1.1517072 0.04728983
-0.15634967 0.054200161 1.1517072 0.04728983
-0.13346967 0.068788223 1.1344246 0.04728983
-0.14065652 0.068788223 1.1344246 0.04728983
-0.13241005 0.076390415 1.1254183 0.04728983
-0.13188685 0.080143958 1.1209716 0.04728983
-0.13293812 0.072601952 1.1299063 0.04728983
-0.14055836 0.076390415 1.1254183 0.04728983
-0.14000297 0.080143958 1.1209716 0.04728983
-0.14111893 0.072601952 1.1299064 0.04728983
-0.13234314 0.062034812 1.1424253 0.04728983
-0.13181199 0.065904953 1.1378403 0.04728983
-0.13287859 0.05813333 1.1470475 0.04728983
-0.1406146 0.062034812 1.1424254 0.04728983
-0.14005025 0.065904953 1.1378403 0.04728983
-0.1411835 0.05813333 1.1470475 0.04728983
-0.14784333 0.06878823 1.1344247 0.04728983
-0.15605688 0.06878823 1.1344247 0.04728983
-0.14870667 0.076390415 1.1254183 0.04728983
-0.14811911 0.080143958 1.1209716 0.04728983
-0.14899324 0.072774835 1.129702 0.04728983
-0.15685499 0.076390415 1.1254183 0.04728983
-0.15623523 0.080143958 1.1209717 0.04728983
-0.15679744 0.072601952 1.1299067 0.04728983
-0.14888605 0.062034812 1.1424254 0.04728983
-0.14828852 0.065904967 1.1378404 0.04728983
-0.14902148 0.058273248 1.1468819 0.04728983
-0.1571575 0.062034812 1.1424254 0.04728983
-0.15652676 0.065904975 1.1378404 0.04728983
-0.15618406 0.057993438 1.1472132 0.04728983
-0.13173494 0.051230252 1.1552255 0.04728983
-0.14009906 0.051230252 1.1552255 0.04728983
-0.14846319 0.051230259 1.1552255 0.04728983
-0.10930357 0.11613505 1.0783324 0.04728983
-0.10878686 0.12043798 1.0732347 0.04728983
-0.11711098 0.11613506 1.0783325 0.04728983
-0.11655734 0.12043798 1.0732347 0.04728983
-0.12491837 0.11613506 1.0783325 0.04728983
-0.12432783 0.12043798 1.0732348 0.04728983
-0.10817461 0.109158 1.0865982 0.04728983
-0.10901046 0.1020709 1.0949944 0.04728983
-0.10848656 0.10651312 1.0897317 0.04728983
-0.10786165 0.094875701 1.1035184 0.04728983
-0.10828283 0.091238312 1.1078277 0.04728983
-0.10943285 0.09848956 1.0992371 0.04728983
-0.11604185 0.10915801 1.0865982 0.04728983
-0.1169385 0.1020709 1.0949944 0.04728983
-0.11637649 0.10651312 1.0897317 0.04728983
-0.1239091 0.10915802 1.0865983 0.04728983
-0.12486655 0.1020709 1.0949944 0.04728983
-0.12426642 0.10651312 1.0897317 0.04728983
-0.11585138 0.094875716 1.1035184 0.04728983
-0.11687522 0.086643934 1.1132708 0.04728983
-0.11630379 0.09123832 1.1078278 0.04728983
-0.124206 0.095015064 1.1033535 0.04728983
-0.12493557 0.086643934 1.113271 0.04728983
-0.12432475 0.09123832 1.1078278 0.04728983
-0.11739162 0.098489575 1.0992372 0.04728983
-0.12535036 0.098489575 1.0992372 0.04728983
-0.11657756 0.11265779 1.0824519 0.04728983
