# .PCD v0.7 - Point Cloud Data file format
VERSION 0.7
FIELDS x y z intensity
SIZE 4 4 4 4
TYPE F F F F
COUNT 1 1 1 1
WIDTH 1070
HEIGHT 1
VIEWPOINT 0 0 0 1 0 0 0
POINTS 1070
DATA ascii
0.0024185812 0.1456603 1.2295834 0.046728939
0.0091987383 0.14493823 1.2293999 0.046728939
0.017597973 0.14551085 1.2283124 0.046728939
-0.059877992 0.20122643 1.1465001 0.51272267
-0.053394545 0.20144582 1.14775 0.51272267
-0.047992136 0.20275766 1.149 0.51272267
-0.061530378 0.20383863 1.1367501 0.51272267
-0.053938206 0.20373328 1.1361668 0.51272267
-0.046801843 0.20372915 1.1352857 0.51272267
-0.043280661 0.20333727 1.1400001 0.51272267
-0.040134333 0.20387235 1.143 0.51272267
-0.038911581 0.20676744 1.1390001 0.51272267
-0.062056463 0.21052337 1.1397779 0.51272267
-0.06046335 0.20712632 1.1370001 0.51272267
-0.053401954 0.20753023 1.1362501 0.51272267
-0.045950744 0.20834197 1.1329092 0.51272267
-0.039260481 0.20945257 1.1335 0.51272267
-0.054524623 0.21103045 1.1394001 0.51272267
-0.049696658 0.21163647 1.138 0.51272267
-0.062742941 0.21563551 1.139125 0.51272267
-0.05405562 0.2139257 1.1386666 0.51272267
-0.047808636 0.21625842 1.1381249 0.51272267
-0.04499878 0.21737729 1.1355002 0.51272267
-0.038721155 0.21647182 1.1334544 0.51272267
-0.060357705 0.21809152 1.1350001 0.51272267
-0.053902648 0.21763688 1.1354444 0.51272267
-0.034589313 0.21838398 1.1393334 0.51272267
-0.032555606 0.21710309 1.1440001 0.51272267
-0.053713337 0.22439611 1.1314167 0.51272267
-0.046422031 0.2236134 1.1312308 0.51272267
-0.037155636 0.22375908 1.1336364 0.51272267
-0.044541799 0.22779372 1.128 0.51272267
-0.055142522 0.23047529 1.1313334 0.51272267
-0.045537006 0.17679414 1.2049091 0.042056076
-0.03746099 0.17631657 1.2049232 0.042056076
-0.029966732 0.17798544 1.2062 0.042056076
-0.021481656 0.1775272 1.2062 0.042056076
-0.013664235 0.17704745 1.2045001 0.042056076
-0.0059708641 0.17646214 1.2038572 0.042056076
-0.047880329 0.17996088 1.2010001 0.042056076
-0.0387231 0.17986099 1.2003335 0.042056076
-0.0033448953 0.17988595 1.2005 0.042056076
-0.046107091 0.18543008 1.1973571 0.042056076
-0.037514877 0.18523312 1.1981876 0.042056076
-0.029650608 0.18249756 1.2026668 0.042056076
-0.020792732 0.18395795 1.202875 0.042056076
-0.013645379 0.1848176 1.2028888 0.042056076
-0.0090637356 0.18353924 1.202 0.042056076
-0.0051280712 0.18546231 1.1975714 0.042056076
-0.029529862 0.18630742 1.1977779 0.042056076
-0.022440199 0.18739381 1.1992501 0.042056076
-0.013601054 0.1887811 1.199 0.042056076
-0.046641905 0.19353756 1.1902142 0.042056076
-0.0442136 0.19034401 1.1945 0.042056076
-0.038541555 0.19037056 1.1946667 0.042056076
-0.030715128 0.1933641 1.1907334 0.042056076
-0.027167106 0.19026433 1.194 0.042056076
-0.021510843 0.19157931 1.1951251 0.042056076
-0.013557571 0.19158578 1.1951667 0.042056076
-0.009003411 0.19026433 1.194 0.042056076
-0.005350329 0.1931027 1.1891334 0.042056076
-0.03841589 0.19427721 1.1907778 0.042056076
-0.021436479 0.19544676 1.1910002 0.042056076
-0.013503693 0.19533753 1.1903335 0.042056076
-0.045500148 0.19856179 1.1866001 0.042056076
-0.037999064 0.19993289 1.1878573 0.042056076
-0.031146897 0.19892959 1.1870002 0.042056076
-0.021144541 0.19869535 1.1874001 0.042056076
-0.01573154 0.19943132 1.1877501 0.042056076
-0.01382255 0.20191322 1.1824546 0.042056076
-0.005936088 0.19801056 1.1860001 0.042056076
-0.045960359 0.20110297 1.1810001 0.042056076
-0.029823218 0.20232077 1.1822001 0.042056076
-0.022659838 0.20194586 1.1810001 0.042056076
-0.038568527 0.20311566 1.1816001 0.042056076
-0.032640979 0.21985351 1.1470001 0.47884518
-0.0051126434 0.23348103 1.1574286 0.47884518
-0.03080512 0.2344773 1.1600001 0.47884518
-0.023690429 0.24028957 1.1572001 0.47884518
-0.014172658 0.23629987 1.15275 0.47884518
-0.0075980006 0.23635112 1.153 0.47884518
-0.028566683 0.24238904 1.1588001 0.47884518
-0.020563632 0.24191062 1.151143 0.47884518
-0.014143228 0.24126747 1.1503124 0.47884518
-0.00539236 0.24129321 1.1504376 0.47884518
-0.030619228 0.24292862 1.153 0.47884518
-0.030552838 0.24786699 1.1505001 0.47884518
-0.02740491 0.24907923 1.1561252 0.47884518
-0.024062585 0.24533373 1.154 0.47884518
-0.021978671 0.24890248 1.1482 0.47884518
-0.014107564 0.24829666 1.1474168 0.47884518
-0.0053767343 0.24822418 1.1470834 0.47884518
-0.028352767 0.25323054 1.1500001 0.47884518
-0.020590995 0.25190935 1.1440001 0.47884518
-0.014068155 0.25196442 1.14425 0.47884518
-0.0058122925 0.25211382 1.1407143 0.47884518
-0.022691987 0.25487748 1.1402501 0.47884518
-0.014453386 0.25499585 1.1403 0.47884518
-0.0042553339 0.25517681 1.1391667 0.47884518
-0.013523864 0.25901434 1.1351001 0.47884518
-0.0056121643 0.25867334 1.1346364 0.47884518
-0.0054524103 0.20140995 1.1815385 0.088545963
-0.047949206 0.2027418 1.1656667 0.088545963
-0.044503625 0.20351657 1.17225 0.088545963
-0.038291186 0.20740329 1.1753334 0.088545963
-0.035793565 0.20692967 1.1790001 0.088545963
-0.02973648 0.20905466 1.180143 0.088545963
-0.022907631 0.20809619 1.17925 0.088545963
-0.014497984 0.20697355 1.17925 0.088545963
-0.0062740967 0.20649846 1.1786667 0.088545963
-0.046484981 0.20575756 1.166 0.088545963
-0.043379344 0.20681635 1.1720001 0.088545963
-0.005067396 0.21025881 1.1762999 0.088545963
-0.033437796 0.21069631 1.175 0.088545963
-0.021167442 0.21087609 1.1760001 0.088545963
-0.014452111 0.21080896 1.175625 0.088545963
-0.035489969 0.21184427 1.169 0.088545963
-0.029724652 0.21823899 1.1755 0.088545963
-0.028701996 0.21633278 1.1793333 0.088545963
-0.022718856 0.21609975 1.1726667 0.088545963
-0.014089083 0.21636629 1.1720001 0.088545963
-0.0054999557 0.21709736 1.1733751 0.088545963
-0.020664804 0.21882093 1.1686667 0.088545963
-0.031044126 0.21962453 1.169 0.088545963
-0.016587555 0.2195306 1.1685001 0.088545963
-0.030957816 0.22455797 1.16575 0.088545963
-0.027843429 0.22515656 1.1746668 0.088545963
-0.024427487 0.22566152 1.1715001 0.088545963
-0.020996686 0.22469816 1.1665001 0.088545963
-0.014562206 0.22492552 1.1665334 0.088545963
-0.011047263 0.22203726 1.1700001 0.088545963
-0.0054852022 0.22203726 1.1700001 0.088545963
-0.0054703369 0.22522724 1.1667858 0.088545963
-0.027786542 0.23026493 1.17225 0.088545963
-0.023013607 0.232021 1.1642858 0.088545963
-0.014288504 0.22940686 1.16225 0.088545963
-0.0054495814 0.22940688 1.1622502 0.088545963
-0.027670234 0.23484755 1.1673334 0.088545963
-0.020670814 0.23436753 1.1571429 0.088545963
-0.014235863 0.23295128 1.1579167 0.088545963
-0.02779777 0.24025145 1.1634001 0.088545963
0.064035393 0.18622822 1.1733333 0.18389407
0.055301368 0.19146642 1.1902001 0.18389407
0.059690643 0.18851148 1.1830001 0.18389407
0.056698449 0.19323018 1.1816 0.18389407
0.058603689 0.19241083 1.1725001 0.18389407
0.062212009 0.18818101 1.1670001 0.18389407
0.048657667 0.19951527 1.1882501 0.18389407
0.049851511 0.20153971 1.182143 0.18389407
0.053792562 0.19650795 1.177 0.18389407
0.052539237 0.20047197 1.174 0.18389407
0.055459443 0.1967198 1.1650001 0.18389407
0.052178368 0.20132881 1.1660001 0.18389407
0.055031002 0.19739829 1.156 0.18389407
0.041664124 0.20860864 1.1821667 0.18389407
0.047158156 0.20693064 1.179 0.18389407
0.048117228 0.20845768 1.1750001 0.18389407
0.050305605 0.20711553 1.1653334 0.18389407
0.041473292 0.21212989 1.1767501 0.18389407
0.049664047 0.21003115 1.159 0.18389407
0.040803749 0.21728441 1.1748462 0.18389407
0.042638082 0.21459526 1.1780001 0.18389407
0.04679817 0.21313792 1.1700001 0.18389407
0.046598177 0.21665581 1.1650001 0.18389407
0.048310693 0.21223354 1.153 0.18389407
0.044497151 0.21832615 1.1680001 0.18389407
0.048310693 0.21442606 1.153 0.18389407
0.048394494 0.21699432 1.1550001 0.18389407
0.041288499 0.2223219 1.1715 0.18389407
0.042171832 0.22443198 1.165125 0.18389407
0.046598177 0.22108836 1.1650001 0.18389407
0.043089472 0.22675693 1.1600001 0.18389407
0.0023679207 0.17579773 1.2037778 0.042056076
0.010380619 0.17580552 1.2038335 0.042056076
0.018411888 0.17599177 1.2051113 0.042056076
0.026413327 0.17586605 1.2042501 0.042056076
0.034401771 0.17573325 1.2033334 0.042056076
0.042691268 0.17614879 1.2037694 0.042056076
0.0023607223 0.17986099 1.2003334 0.042056076
0.010354429 0.17992342 1.2007501 0.042056076
0.018349076 0.17996089 1.2010001 0.042056076
0.026320346 0.17981105 1.2 0.042056076
0.034335483 0.17996089 1.2010001 0.042056076
0.041186806 0.17996089 1.2010001 0.042056076
0.0023544705 0.18502219 1.1968334 0.042056076
0.010327602 0.18514489 1.197625 0.042056076
0.018297991 0.18515199 1.1976665 0.042056076
0.026247157 0.18500106 1.1966876 0.042056076
0.034208901 0.18498348 1.1965834 0.042056076
0.042183764 0.18502727 1.1968572 0.042056076
0.045792442 0.1823964 1.202 0.042056076
0.050209839 0.18525396 1.1983333 0.042056076
0.038643893 0.18783641 1.1930001 0.042056076
0.0023375743 0.19270645 1.1880834 0.042056076
0.010186735 0.19324359 1.1900001 0.042056076
0.011430744 0.19026433 1.194 0.042056076
0.018184362 0.19305725 1.19025 0.042056076
0.025053514 0.19026433 1.194 0.042056076
0.026349051 0.19370016 1.1893847 0.042056076
0.034026086 0.19304399 1.1901668 0.042056076
0.041766029 0.19348261 1.1914667 0.042056076
0.045487672 0.19026433 1.194 0.042056076
0.048893362 0.19026433 1.194 0.042056076
0.0023331589 0.19801056 1.1860001 0.042056076
0.010226532 0.19801056 1.1860001 0.042056076
0.016998967 0.19809404 1.1865001 0.042056076
0.01829635 0.20152131 1.1828001 0.042056076
0.025956895 0.20095561 1.1834375 0.042056076
0.03392189 0.19809404 1.1865001 0.042056076
0.03385919 0.20177953 1.1843001 0.042056076
0.042096876 0.20112742 1.187 0.042056076
0.010200347 0.20200641 1.183 0.042056076
0.040638104 0.20310144 1.1850001 0.042056076
0.033783395 0.20852025 1.1816669 0.042056076
0.018683668 0.23305111 1.1650001 0.087963358
0.023944337 0.23028085 1.1622002 0.087963358
0.026344541 0.23377031 1.1586154 0.087963358
0.033100292 0.23259881 1.1578462 0.087963358
0.033220511 0.22935753 1.1620001 0.087963358
0.037510164 0.228568 1.1580001 0.087963358
0.01992848 0.2344773 1.1600001 0.087963358
0.03585605 0.23395361 1.1520001 0.087963358
0.016694043 0.24109983 1.165375 0.087963358
0.036970291 0.23395641 1.1413335 0.087963358
0.019872647 0.24041712 1.1567501 0.087963358
0.024240192 0.23900768 1.1552502 0.087963358
0.0307974 0.2387505 1.154 0.087963358
0.032236308 0.24061225 1.1494286 0.087963358
0.026613772 0.24277869 1.151 0.087963358
0.033402447 0.24226753 1.143 0.087963358
0.015563682 0.24845627 1.1635001 0.087963358
0.021962557 0.24360064 1.151 0.087963358
0.017688297 0.24942923 1.1577501 0.087963358
0.020362943 0.2483238 1.149 0.087963358
0.026252223 0.24715233 1.1471667 0.087963358
0.030490492 0.24614628 1.1425 0.087963358
0.016219663 0.25605455 1.1578335 0.087963358
0.021809908 0.25060239 1.143 0.087963358
0.026161006 0.25063816 1.1431668 0.087963358
0.030201375 0.24919291 1.1316668 0.087963358
0.020703768 0.25581053 1.1420002 0.087963358
0.025485201 0.25521201 1.1407144 0.087963358
0.017592808 0.25903451 1.1515 0.087963358
0.025953459 0.2580111 1.1341667 0.087963358
0.030130209 0.25290009 1.1290001 0.087963358
0.013262285 0.26438484 1.1557502 0.087963358
0.015460012 0.26438484 1.1557502 0.087963358
0.017544426 0.26377982 1.1483334 0.087963358
0.020596253 0.25986761 1.1360002 0.087963358
0.027970957 0.25815243 1.1285 0.087963358
0.030032357 0.25849777 1.1253333 0.087963358
0.019153308 0.26484182 1.1328572 0.087963358
0.0244701 0.26289865 1.1320001 0.087963358
0.026565399 0.26547539 1.1249231 0.087963358
0.015396474 0.26986414 1.151 0.087963358
0.030023461 0.26270038 1.125 0.087963358
0.020632118 0.26683316 1.1262 0.087963358
0.017271966 0.27150825 1.1305001 0.087963358
0.028850887 0.2681613 1.1210001 0.087963358
0.002326594 0.20192952 1.1825557 0.096634164
0.0025237193 0.20906995 1.179 0.096634164
0.0094943587 0.20784393 1.1791002 0.096634164
0.018028235 0.20598419 1.1800001 0.096634164
0.026997637 0.20762132 1.1797502 0.096634164
0.017951421 0.20957798 1.175 0.096634164
0.024649592 0.2100917 1.1747502 0.096634164
7.7318393e-05 0.20993681 1.177 0.096634164
0.011260979 0.21093632 1.1763334 0.096634164
0.033649344 0.21217495 1.177 0.096634164
7.7318393e-05 0.21441309 1.177 0.096634164
0.0026010566 0.21729937 1.179 0.096634164
0.010468201 0.21717894 1.1813751 0.096634164
0.01350613 0.21441309 1.177 0.096634164
0.018658016 0.21659668 1.1726668 0.096634164
0.025961148 0.21603039 1.1717693 0.096634164
0.033607934 0.21780466 1.1755456 0.096634164
0.033677936 0.21459526 1.1780001 0.096634164
0.0079741674 0.2195285 1.1865001 0.096634164
0.015791083 0.21841931 1.1805 0.096634164
0.0083746538 0.22275233 1.1896667 0.096634164
0.00045019863 0.22443707 1.1748334 0.096634164
0.012839798 0.22325575 1.1843333 0.096634164
0.015787739 0.22510055 1.18025 0.096634164
0.02451559 0.21949929 1.1683334 0.096634164
0.017931473 0.22496426 1.1736667 0.096634164
0.020061623 0.22493847 1.16775 0.096634164
0.025345759 0.22475849 1.1656667 0.096634164
0.029024361 0.22222702 1.171 0.096634164
0.034620717 0.22241679 1.1720001 0.096634164
0.034454431 0.22577409 1.1663333 0.096634164
0.015757643 0.23027557 1.1780001 0.096634164
0.016576098 0.23234122 1.1726 0.096634164
0.050733574 -0.099808604 1.0055001 0.045071445
0.058310732 -0.099684522 1.00425 0.045071445
0.065930739 -0.099659711 1.0039999 0.045071445
0.073552161 -0.099634886 1.0037501 0.045071445
0.082075566 -0.099560454 1.003 0.045071445
0.090683758 -0.099585257 1.0032501 0.045071445
0.049911804 -0.098159447 1.0081999 0.045071445
0.058913473 -0.097276501 1.0075715 0.045071445
0.06615027 -0.096157663 1.0073334 0.045071445
0.073384553 -0.096480548 1.0067 0.045071445
0.081858248 -0.09704987 1.0055556 0.045071445
0.090294123 -0.096188515 1.006 0.045071445
0.049720377 -0.094020672 1.013 0.045071445
0.057951372 -0.09292455 1.0124667 0.045071445
0.075108416 -0.092742912 1.011875 0.045071445
0.081926443 -0.092838384 1.0129167 0.045071445
0.089308195 -0.092193961 1.0128889 0.045071445
0.066090837 -0.091995366 1.0127143 0.045071445
0.068950705 -0.089871727 1.0156668 0.045071445
0.073768929 -0.089857079 1.0155001 0.045071445
0.082189389 -0.088628918 1.0161668 0.045071445
0.089969657 -0.089324802 1.0167501 0.045071445
0.059604168 -0.073367134 1.01 0.072971188
0.063445315 -0.073367134 1.01 0.072971188
0.066259235 -0.070020907 1.0060667 0.072971188
0.073724769 -0.070217855 1.0061251 0.072971188
0.081763625 -0.069338627 1.0054001 0.072971188
0.083114147 -0.073778763 1.0156667 0.072971188
0.089770325 -0.073694013 1.0145 0.072971188
0.097439758 -0.073657699 1.0140001 0.072971188
0.090570651 -0.069405846 1.0060769 0.072971188
0.098541625 -0.069224305 1.0055834 0.072971188
0.051835556 -0.065576412 1.0083333 0.072971188
0.055707809 -0.065619767 1.0090001 0.072971188
0.058291886 -0.064178094 1.0132222 0.072971188
0.066177301 -0.063738577 1.0140001 0.072971188
0.067198277 -0.065598093 1.0086668 0.072971188
0.073842898 -0.065538481 1.00775 0.072971188
0.081365347 -0.065424666 1.006 0.072971188
0.090631016 -0.065116048 1.0061667 0.072971188
0.098681018 -0.064531788 1.007 0.072971188
0.074939027 -0.063680485 1.0148001 0.072971188
0.082044989 -0.063073717 1.0143751 0.072971188
0.090112098 -0.062471729 1.0140001 0.072971188
0.057902578 -0.061131958 1.0195 0.072971188
0.096334189 -0.099510811 1.0025001 0.14028835
0.099796705 -0.099163398 0.99900001 0.14028835
0.10555133 -0.099213026 0.99950004 0.14028835
0.11406716 -0.099183239 0.99920005 0.14028835
0.12063301 -0.099113762 0.99850005 0.14028835
0.12496907 -0.097735785 0.99900007 0.14028835
0.12820606 -0.096959785 0.99980003 0.14028835
0.13105449 -0.099097222 0.99833339 0.14028835
0.13768807 -0.099088944 0.99825001 0.14028835
0.09871041 -0.094881058 1.0056667 0.14028835
0.099897549 -0.097361088 1 0.14028835
0.10285264 -0.097458452 1.001 0.14028835
0.10639559 -0.095092036 1.0062144 0.14028835
0.11390187 -0.095083915 1.006125 0.14028835
0.12174693 -0.094960801 1.0054117 0.14028835
0.13098258 -0.094018988 1.0033846 0.14028835
0.13846342 -0.095194556 1.0052668 0.14028835
0.095092691 -0.093102202 1.0116 0.14028835
0.10761854 -0.092572957 1.01 0.14028835
0.098296762 -0.089160055 1.0129092 0.14028835
0.10628397 -0.088854767 1.0130001 0.14028835
0.1141904 -0.088022307 1.0129377 0.14028835
0.12212843 -0.087877542 1.0132354 0.14028835
0.12982209 -0.089625195 1.0077144 0.14028835
0.13487917 -0.089833297 1.008 0.14028835
0.13019447 -0.086170688 1.0138 0.14028835
0.097598962 -0.085000336 1.0190001 0.14028835
0.10581179 -0.08479166 1.0203751 0.14028835
0.11333755 -0.083647765 1.0182501 0.14028835
0.12209226 -0.083676517 1.0186001 0.14028835
0.12980647 -0.083654612 1.0183334 0.14028835
0.11364412 -0.079022795 1.0209999 0.079369649
0.12155277 -0.079113081 1.0221876 0.079369649
0.1296214 -0.080001824 1.0232501 0.079369649
0.13039419 -0.078041203 1.026 0.079369649
0.13761288 -0.076480396 1.026 0.079369649
0.10588558 -0.073497884 1.0118001 0.079369649
0.11448278 -0.073457934 1.01125 0.079369649
0.12306639 -0.072327293 1.0133333 0.079369649
0.13069709 -0.072504878 1.0215 0.079369649
0.13875674 -0.071968682 1.0292858 0.079369649
0.10600672 -0.069103055 1.0038335 0.079369649
0.11364291 -0.069102898 1.0038334 0.079369649
0.12075676 -0.068804257 1.0056666 0.079369649
0.12886873 -0.069417968 1.0140002 0.079369649
0.13539648 -0.069517046 1.024 0.079369649
0.12669872 -0.067538448 1.0090001 0.079369649
0.1062494 -0.064475358 1.006125 0.079369649
0.1139719 -0.0645153 1.00675 0.079369649
0.12158645 -0.064491853 1.0063751 0.079369649
0.1284693 -0.063946582 1.0078334 0.079369649
0.13059106 -0.06218227 1.0124 0.079369649
0.13749659 -0.063516654 1.0215001 0.079369649
0.13512807 -0.062129389 1.0146668 0.079369649
0.12252133 -0.061129987 1.014125 0.079369649
0.13530564 -0.058347046 1.016 0.079369649
0.049355976 -0.086468562 1.0222143 0.59580243
0.051314779 -0.089346766 1.0170001 0.59580243
0.056149498 -0.089346766 1.0170001 0.59580243
0.057578232 -0.086894982 1.0223333 0.59580243
0.06527669 -0.086724184 1.02175 0.59580243
0.075274944 -0.086286195 1.0220001 0.59580243
0.082508348 -0.085349336 1.0201 0.59580243
0.090294279 -0.085763775 1.0204167 0.59580243
0.071801379 -0.084813245 1.0265 0.59580243
0.042013895 -0.084284425 1.026 0.59580243
0.057621889 -0.084284425 1.026 0.59580243
0.042033419 -0.082373537 1.0265 0.59580243
0.046891391 -0.082333416 1.026 0.59580243
0.049963631 -0.080015153 1.0235455 0.59580243
0.056995399 -0.079458244 1.0235 0.59580243
0.058611669 -0.081865728 1.02625 0.59580243
0.065518342 -0.079892471 1.0216155 0.59580243
0.073282719 -0.082393602 1.0267501 0.59580243
0.082046136 -0.08028809 1.023 0.59580243
0.090450756 -0.079114512 1.0221876 0.59580243
0.098209456 -0.079099216 1.0220002 0.59580243
0.10596924 -0.079091452 1.021875 0.59580243
0.04221018 -0.07884454 1.0228888 0.59580243
0.074005783 -0.079195485 1.0232501 0.59580243
0.058026649 -0.075734958 1.0160002 0.59580243
0.066538893 -0.075529978 1.0132501 0.59580243
0.074357249 -0.075641789 1.0147501 0.59580243
0.082155131 -0.075716332 1.0157501 0.59580243
0.065786101 -0.061257351 1.0202501 0.042056076
0.074293531 -0.061321098 1.0195714 0.042056076
0.097439751 -0.061122809 1.0140001 0.042056076
0.082439654 -0.060471863 1.01925 0.042056076
0.088361189 -0.060546022 1.0205001 0.042056076
0.05744008 -0.057761319 1.0227501 0.042056076
0.065281942 -0.057817567 1.0237501 0.042056076
0.07384979 -0.057307143 1.0233334 0.042056076
0.082455002 -0.056962673 1.0227273 0.042056076
0.090712599 -0.056480329 1.0226156 0.042056076
0.098164253 -0.055427566 1.0209413 0.042056076
0.057786245 -0.053215999 1.0289167 0.042056076
0.065622754 -0.053225573 1.0290834 0.042056076
0.073401198 -0.052798819 1.0283999 0.042056076
0.082133725 -0.052659918 1.0275834 0.042056076
0.090496697 -0.052025165 1.0274285 0.042056076
0.098267727 -0.051117301 1.026 0.042056076
0.058254268 -0.047729671 1.03725 0.042056076
0.066306688 -0.047379069 1.0362308 0.042056076
0.07376308 -0.047172647 1.0374286 0.042056076
0.081295118 -0.046132468 1.0368001 0.042056076
0.08327318 -0.048275985 1.0320001 0.042056076
0.088327274 -0.048304234 1.0314286 0.042056076
0.098064557 -0.048830975 1.0307143 0.042056076
0.090508781 -0.045284953 1.0364445 0.042056076
0.097395763 -0.045313954 1.0361 0.042056076
0.058578067 -0.044030942 1.0430001 0.042056076
0.065475769 -0.044002797 1.0423334 0.042056076
0.076353297 -0.043988723 1.0420001 0.042056076
0.079325438 -0.043988723 1.0420001 0.042056076
0.058806837 -0.040219065 1.0470833 0.042056076
0.066769302 -0.040219381 1.0470833 0.042056076
0.074609481 -0.040151685 1.0453334 0.042056076
0.082209721 -0.038701016 1.0445 0.042056076
0.084117241 -0.041926663 1.0400001 0.042056076
0.09009435 -0.041946821 1.0405 0.042056076
0.097983427 -0.041936744 1.0402501 0.042056076
0.090397239 -0.038115542 1.044 0.042056076
0.078012057 -0.03637448 1.051 0.042056076
0.084181666 -0.033487212 1.0482 0.042056076
0.090108335 -0.033624116 1.0483333 0.042056076
0.10600013 -0.061056547 1.0129001 0.057475083
0.11477983 -0.061115395 1.013875 0.057475083
0.10543545 -0.055236094 1.0217692 0.057475083
0.10764874 -0.057721559 1.0163335 0.057475083
0.11248156 -0.057721555 1.0163335 0.057475083
0.12125614 -0.055929407 1.0213333 0.057475083
0.12977763 -0.054881111 1.0215001 0.057475083
0.13139726 -0.058327902 1.0156667 0.057475083
0.13616149 -0.054825354 1.0224286 0.057475083
0.11415423 -0.054417878 1.0220999 0.057475083
0.13951598 -0.053210329 1.0287143 0.057475083
0.12270967 -0.051557325 1.027 0.057475083
0.10647538 -0.051154666 1.02675 0.057475083
0.11434026 -0.05117958 1.0272501 0.057475083
0.12791972 -0.051142212 1.0265 0.057475083
0.10641542 -0.048336331 1.0314445 0.057475083
0.11419096 -0.049022615 1.0312001 0.057475083
0.12261396 -0.048430439 1.0311251 0.057475083
0.13035601 -0.047411542 1.0303334 0.057475083
0.13604781 -0.047807593 1.0304 0.057475083
0.13860455 -0.046025801 1.0358334 0.057475083
0.11371682 -0.045300718 1.0358 0.057475083
0.12134908 -0.045087028 1.0354002 0.057475083
0.10539966 -0.044692397 1.0353751 0.057475083
0.13006321 -0.043726988 1.0358 0.057475083
0.10649604 -0.041253384 1.0396667 0.057475083
0.12266515 -0.040437687 1.039875 0.057475083
0.12855093 -0.040916741 1.0395 0.057475083
0.13630606 -0.041859474 1.0383334 0.057475083
0.048843674 -0.037180435 1.0512 0.042056076
0.057108786 -0.036426395 1.0525 0.042056076
0.065037735 -0.03638313 1.05125 0.042056076
0.073032364 -0.03638313 1.0512501 0.042056076
0.048826944 -0.031790532 1.0537502 0.042056076
0.057238247 -0.033498175 1.054875 0.042056076
0.065207154 -0.033470027 1.0539999 0.042056076
0.073179163 -0.033450775 1.053375 0.042056076
0.081028886 -0.031758744 1.0526668 0.042056076
0.090056345 -0.030061662 1.054 0.042056076
0.05173998 -0.029258572 1.0586667 0.042056076
0.057455525 -0.029599352 1.0588751 0.042056076
0.065634504 -0.029655019 1.0608751 0.042056076
0.073613837 -0.029620316 1.059625 0.042056076
0.080153771 -0.029113261 1.0595 0.042056076
0.049524531 -0.026645314 1.0615001 0.042056076
0.058501408 -0.025124993 1.0636667 0.042056076
0.06482397 -0.025554687 1.0641429 0.042056076
0.074321948 -0.025829654 1.0635716 0.042056076
0.082313783 -0.025347434 1.0635556 0.042056076
0.088479877 -0.026523991 1.0566667 0.042056076
0.090194039 -0.022932814 1.0623077 0.042056076
0.049833659 -0.022747902 1.0681666 0.042056076
0.056888424 -0.021857828 1.0671428 0.042056076
0.066870667 -0.022296522 1.0681109 0.042056076
0.073804118 -0.022052785 1.0672222 0.042056076
0.081884481 -0.02158623 1.0680001 0.042056076
0.050624512 -0.018346891 1.072 0.042056076
0.058098793 -0.018733095 1.0707501 0.042056076
0.066321693 -0.018754967 1.072 0.042056076
0.075178154 -0.017465131 1.071125 0.042056076
0.083078973 -0.016532857 1.0712501 0.042056076
0.090280093 -0.016091548 1.0695 0.042056076
0.049950004 -0.014552196 1.0766364 0.042056076
0.058410708 -0.014736135 1.0765001 0.042056076
0.066662125 -0.014749828 1.0775002 0.042056076
0.073992863 -0.013965305 1.076125 0.042056076
0.081288077 -0.013179576 1.0745 0.042056076
0.09197291 -0.012663109 1.074 0.042056076
0.050250266 -0.0095631862 1.0865716 0.042056076
0.05346673 -0.010680162 1.08 0.042056076
0.058838349 -0.008659713 1.0844002 0.042056076
0.061738577 -0.01069005 1.0810001 0.042056076
0.063794166 -0.01069005 1.0810001 0.042056076
0.06629087 -0.008398856 1.084 0.042056076
0.073309034 -0.007631131 1.0849167 0.042056076
0.075029463 -0.010680161 1.08 0.042056076
0.08178547 -0.0089567387 1.0788335 0.042056076
0.089519836 -0.0086150207 1.0789001 0.042056076
0.050421108 -0.0057468009 1.0902859 0.042056076
0.056884132 -0.0049767653 1.0904001 0.042056076
0.080902718 -0.0049501378 1.0844001 0.042056076
0.089911118 -0.0049456493 1.0836 0.042056076
0.065301679 -0.0045567458 1.0890001 0.042056076
0.071546435 -0.004558838 1.0895001 0.042056076
0.049713861 2.142461e-06 1.0923002 0.042056076
0.057236642 -0.00041466267 1.0931667 0.042056076
0.065621965 -0.00041415662 1.0943334 0.042056076
0.074176393 0.00018124729 1.0933572 0.042056076
0.081853405 0.0013442799 1.0920001 0.042056076
0.082775943 -0.0024821355 1.0873333 0.042056076
0.089985684 -0.0014469225 1.0870001 0.042056076
0.090326816 0.0026973947 1.091125 0.042056076
0.05124978 0.0037589853 1.0985 0.042056076
0.057502087 0.0037581299 1.09825 0.042056076
0.065931305 0.0037624072 1.0995001 0.042056076
0.072105095 0.0037572745 1.098 0.042056076
0.049721222 0.0070591518 1.1010001 0.042056076
0.058323611 0.0077553517 1.1019001 0.042056076
0.06565693 0.0087182662 1.1024286 0.042056076
0.074721977 0.0086535821 1.1006666 0.042056076
0.077254452 0.0058398708 1.097 0.042056076
0.082427457 0.0090015465 1.1004286 0.042056076
0.083512485 0.0058398708 1.097 0.042056076
0.091187939 0.0067287721 1.0961429 0.042056076
0.089341767 0.010839798 1.1013751 0.042056076
0.049507745 0.01114837 1.10625 0.042056076
0.056873832 0.01114929 1.1063334 0.042056076
0.069475763 0.011145612 1.1060001 0.042056076
0.072323076 0.011502852 1.1066667 0.042056076
0.049736742 0.01542803 1.111375 0.042056076
0.058571197 0.016051041 1.1106 0.042056076
0.066602014 0.016475827 1.1106668 0.042056076
0.074330017 0.017424444 1.11 0.042056076
0.076697759 0.014274452 1.1040001 0.042056076
0.081996173 0.014283072 1.1046667 0.042056076
0.089271799 0.014271219 1.1037501 0.042056076
0.09805274 0.015162049 1.103 0.042056076
0.08166384 0.018777285 1.1105456 0.042056076
0.089731075 0.018566916 1.1094168 0.042056076
0.097831845 0.01927113 1.1095557 0.042056076
0.049959078 0.019743394 1.116375 0.042056076
0.057689562 0.020077515 1.1153334 0.042056076
0.065800644 0.020777417 1.115 0.042056076
0.071068883 0.020768102 1.1145 0.042056076
0.050057087 0.025440704 1.125091 0.042056076
0.053364839 0.023020882 1.1210001 0.042056076
0.05945164 0.024651241 1.1196668 0.042056076
0.066069692 0.025122238 1.1195556 0.042056076
0.073438473 0.025095398 1.1183335 0.042056076
0.081626125 0.024892855 1.1179092 0.042056076
0.090743773 0.024369771 1.1175556 0.042056076
0.098211713 0.02485662 1.1171 0.042056076
0.05627368 0.026605457 1.1223334 0.042056076
0.085415684 0.027308531 1.1220001 0.042056076
0.089682788 0.027308531 1.1220001 0.042056076
0.05837547 0.030437287 1.1272001 0.042056076
0.06570217 0.031511508 1.1265454 0.042056076
0.074155107 0.031884044 1.1265 0.042056076
0.082466997 0.033204257 1.1254287 0.042056076
0.08210592 0.029402729 1.1205001 0.042056076
0.090336747 0.032519318 1.1260769 0.042056076
0.098129444 0.029415851 1.1210001 0.042056076
0.11229929 -0.041431781 1.04 0.042056076
0.11479906 -0.038308207 1.04475 0.042056076
0.098408252 -0.038142458 1.0447501 0.042056076
0.1058702 -0.03771485 1.0439001 0.042056076
0.12116582 -0.037620194 1.044 0.042056076
0.13055903 -0.037877813 1.0429 0.042056076
0.098140992 -0.03141959 1.0525627 0.042056076
0.10538379 -0.030883078 1.0526154 0.042056076
0.10907958 -0.0336347 1.0486667 0.042056076
0.11334858 -0.033506077 1.0488001 0.042056076
0.11440112 -0.03043793 1.0531818 0.042056076
0.12301984 -0.03341439 1.0477144 0.042056076
0.13052313 -0.033261187 1.047375 0.042056076
0.12156357 -0.029822484 1.0526001 0.042056076
0.12977269 -0.029318366 1.054 0.042056076
0.097755812 -0.023720015 1.0621819 0.042056076
0.09956187 -0.026532358 1.057 0.042056076
0.10554081 -0.026519807 1.0565 0.042056076
0.11360534 -0.026526082 1.0567501 0.042056076
0.12141063 -0.02647588 1.05475 0.042056076
0.12955937 -0.026500981 1.05575 0.042056076
0.13574094 -0.026532358 1.057 0.042056076
0.10605711 -0.022609463 1.0616666 0.042056076
0.11416078 -0.022614947 1.0619166 0.042056076
0.12236927 -0.022804881 1.0622728 0.042056076
0.13018088 -0.022591874 1.0608333 0.042056076
0.098075144 -0.02135922 1.0663334 0.042056076
0.12169375 -0.020677064 1.0660001 0.042056076
0.098728627 -0.017697312 1.0697501 0.042056076
0.10619313 -0.016678579 1.0698334 0.042056076
0.11401016 -0.01668115 1.0700002 0.042056076
0.12966989 -0.016839353 1.0700768 0.042056076
0.12174004 -0.015687684 1.0715001 0.042056076
0.097607024 -0.013550164 1.075 0.042056076
0.1053457 -0.012674901 1.075 0.042056076
0.11349576 -0.012671953 1.0747499 0.042056076
0.11852248 -0.012663109 1.074 0.042056076
0.12984632 -0.012671953 1.0747501 0.042056076
0.096950784 -0.01026311 1.0794001 0.042056076
0.10613438 -0.0093055815 1.0795557 0.042056076
0.11389947 -0.0086129354 1.0785834 0.042056076
0.12201795 -0.0086056767 1.0778333 0.042056076
0.13016994 -0.008293109 1.0780771 0.042056076
0.098222584 -0.0064055827 1.0835456 0.042056076
0.10570168 -0.0054145642 1.083143 0.042056076
0.11434059 -0.0045305938 1.0827501 0.042056076
0.12274462 -0.0045368699 1.0842501 0.042056076
0.13110565 -0.0045288499 1.0823334 0.042056076
0.098440178 -0.0015956798 1.0874287 0.042056076
0.10648169 -0.00082609878 1.0866001 0.042056076
0.11430185 -0.0015939948 1.0865715 0.042056076
0.12198605 -0.0024806138 1.0866667 0.042056076
0.1291537 -0.001445638 1.086125 0.042056076
0.13645186 -0.0014464785 1.0866667 0.042056076
0.13845028 0.0016608244 1.0915557 0.042056076
0.098540775 0.002353037 1.0914445 0.042056076
0.12148196 0.0016626733 1.0914167 0.042056076
0.10623188 0.0029029455 1.0904 0.042056076
0.11373203 0.0028490911 1.0924286 0.042056076
0.12974803 0.0026981081 1.091125 0.042056076
0.098026387 0.0068766051 1.0960001 0.042056076
0.10525742 0.0068730409 1.0953751 0.042056076
0.1116232 0.0068797427 1.0965 0.042056076
0.11475831 0.0096933926 1.0999167 0.042056076
0.12218416 0.0087842783 1.0996001 0.042056076
0.13250329 0.0068815486 1.09675 0.042056076
0.13723223 0.0066696391 1.0962001 0.042056076
0.09730418 0.011082677 1.099625 0.042056076
0.10571554 0.011088191 1.1001251 0.042056076
0.10596885 0.01425829 1.1027501 0.042056076
0.12955616 0.0097066686 1.1012501 0.042056076
0.13772272 0.010654523 1.1015716 0.042056076
0.1144589 0.014271219 1.1037501 0.042056076
0.12220927 0.015109772 1.1036 0.042056076
0.12926927 0.01428415 1.10475 0.042056076
0.13547876 0.014274452 1.1040001 0.042056076
0.13804571 0.017684685 1.1091667 0.042056076
0.10635953 0.018382212 1.1098183 0.042056076
0.11409736 0.01858457 1.1104547 0.042056076
0.12130936 0.019277129 1.1098889 0.042056076
0.12976633 0.018559152 1.109 0.042056076
0.10550006 0.02508435 1.1178 0.042056076
0.11376051 0.025077807 1.1175001 0.042056076
0.12186579 0.025248278 1.1165456 0.042056076
0.12494281 0.022856593 1.113 0.042056076
0.13020393 0.02285146 1.1127501 0.042056076
0.13646048 0.022836056 1.1120001 0.042056076
0.13824545 0.025634943 1.1154287 0.042056076
0.13062797 0.026111027 1.116375 0.042056076
0.10675118 0.027308531 1.1220001 0.042056076
0.11449783 0.029514251 1.12475 0.042056076
0.12289144 0.032525592 1.1252 0.042056076
0.12356144 0.02938086 1.1196667 0.042056076
0.13093503 0.030073918 1.1190001 0.042056076
0.13723737 0.030410433 1.1183333 0.042056076
0.12904809 0.034222506 1.1248 0.042056076
0.13838655 0.034506593 1.1247779 0.042056076
0.13520651 0.038179398 1.128 0.042056076
0.14468122 -0.099328838 1.0006666 0.042056076
0.14868408 -0.099461183 1.0020001 0.042056076
0.1524948 -0.099461176 1.0020001 0.042056076
0.15614954 -0.099361919 1.001 0.042056076
0.16208746 -0.09950088 1.0024 0.042056076
0.170334 -0.099494271 1.0023334 0.042056076
0.14653149 -0.09521988 1.0055335 0.042056076
0.15387923 -0.094961613 1.0048125 0.042056076
0.16177233 -0.095107429 1.006375 0.042056076
0.16993949 -0.095658697 1.0058751 0.042056076
0.14314917 -0.092572957 1.01 0.042056076
0.17003721 -0.092572957 1.01 0.042056076
0.13816775 -0.087263294 1.0137144 0.042056076
0.14603586 -0.089241825 1.014154 0.042056076
0.15345931 -0.090502776 1.0083333 0.042056076
0.15418185 -0.088423386 1.0130999 0.042056076
0.16218145 -0.08898548 1.0129168 0.042056076
0.16992848 -0.088465944 1.0143334 0.042056076
0.1464892 -0.084750108 1.019875 0.042056076
0.15426444 -0.084760383 1.02 0.042056076
0.16192222 -0.084708564 1.0193751 0.042056076
0.1702327 -0.084340952 1.0188334 0.042056076
0.1395818 -0.083709382 1.0190001 0.042056076
0.13774565 -0.079576716 1.0228571 0.042056076
0.1457068 -0.081269622 1.0231429 0.042056076
0.15483136 -0.081178546 1.0237501 0.042056076
0.1625374 -0.081138894 1.0232501 0.042056076
0.16954935 -0.081403479 1.0225 0.042056076
0.17137723 -0.099361919 1.001 0.042056076
0.17848638 -0.099610075 1.0035001 0.042056076
0.18506922 -0.09956044 1.003 0.042056076
0.18850838 -0.099361919 1.001 0.042056076
0.19360562 -0.099535629 1.00275 0.042056076
0.19842133 -0.09956044 1.003 0.042056076
0.17805411 -0.095779844 1.0064616 0.042056076
0.1867381 -0.095779546 1.0064616 0.042056076
0.19434603 -0.096085735 1.0065833 0.042056076
0.1991467 -0.096094646 1.0066667 0.042056076
0.18405174 -0.093098931 1.0105 0.042056076
0.17942816 -0.092228398 1.0115 0.042056076
0.19362238 -0.092352293 1.0118001 0.042056076
0.19894381 -0.092618778 1.0105 0.042056076
0.17828979 -0.088969216 1.0147274 0.042056076
0.18610518 -0.089065693 1.0138334 0.042056076
0.19413811 -0.08958602 1.01425 0.042056076
0.19840802 -0.088963531 1.0126668 0.042056076
0.19400787 -0.085545085 1.0199091 0.042056076
0.17745297 -0.084719069 1.0195 0.042056076
0.18563397 -0.084776118 1.018889 0.042056076
0.19919765 -0.08443743 1.02 0.042056076
0.17806171 -0.082092673 1.023 0.042056076
0.18655314 -0.081469715 1.0233334 0.042056076
0.19339609 -0.081337586 1.024 0.042056076
0.19848731 -0.082092673 1.023 0.042056076
0.14599699 -0.077915274 1.0277778 0.042056076
0.15320982 -0.07794033 1.0281111 0.042056076
0.17024225 -0.078098074 1.0273333 0.042056076
0.16177504 -0.077664725 1.0273334 0.042056076
0.14518605 -0.07379169 1.0312858 0.042056076
0.15502393 -0.073946752 1.0315 0.042056076
0.16090547 -0.073946752 1.0315 0.042056076
0.16947137 -0.07342957 1.0318888 0.042056076
0.14694899 -0.070070811 1.0361818 0.042056076
0.15409009 -0.07004296 1.0366666 0.042056076
0.1628329 -0.070256308 1.0360768 0.042056076
0.14083406 -0.06312456 1.031 0.042056076
0.15065673 -0.067765906 1.0420001 0.042056076
0.14514574 -0.06355875 1.0380001 0.042056076
0.15392117 -0.062809795 1.0453335 0.042056076
0.15645072 -0.06572134 1.041 0.042056076
0.16124544 -0.065658212 1.04 0.042056076
0.14796807 -0.061937734 1.044 0.042056076
0.16212448 -0.062036294 1.0456668 0.042056076
0.14535359 -0.05673112 1.0395 0.042056076
0.14723513 -0.054427564 1.0458335 0.042056076
0.15382327 -0.054987326 1.0535001 0.042056076
0.15665567 -0.058247436 1.049 0.042056076
0.16064513 -0.058247436 1.049 0.042056076
0.16195942 -0.055077199 1.0538572 0.042056076
0.16984695 -0.05548843 1.0534999 0.042056076
0.14163521 -0.055448312 1.034 0.042056076
0.14981677 -0.054309674 1.0500001 0.042056076
0.17192 -0.050651826 1.057 0.042056076
0.17765452 -0.050567966 1.05525 0.042056076
0.14460592 -0.04879741 1.046 0.042056076
0.15053017 -0.050555985 1.0550001 0.042056076
0.15470225 -0.047638834 1.0616001 0.042056076
0.1624433 -0.048062932 1.0620667 0.042056076
0.16974367 -0.047396373 1.0613573 0.042056076
0.14650285 -0.045610003 1.052 0.042056076
0.14965028 -0.046896618 1.0630001 0.042056076
0.14074962 -0.043988723 1.0420001 0.042056076
0.13800184 -0.038851935 1.0443637 0.042056076
0.14327896 -0.041173078 1.046 0.042056076
0.14575849 -0.040500883 1.0543333 0.042056076
0.14775234 -0.039719533 1.06025 0.042056076
0.15383495 -0.039227035 1.0698333 0.042056076
0.15528581 -0.043015145 1.067 0.042056076
0.16137271 -0.043015145 1.067 0.042056076
0.16157632 -0.039255574 1.070182 0.042056076
0.1408319 -0.036339872 1.0500001 0.042056076
0.14846221 -0.035979159 1.069 0.042056076
0.16322632 -0.035575919 1.0752001 0.042056076
0.13670832 -0.034310516 1.049 0.042056076
0.1374947 -0.031048764 1.0535001 0.042056076
0.14257315 -0.033519089 1.0555 0.042056076
0.14452982 -0.031721927 1.0625 0.042056076
0.15436979 -0.035152745 1.0747501 0.042056076
0.14729156 -0.030937664 1.0703334 0.042056076
0.15438315 -0.031817123 1.0772223 0.042056076
0.16249028 -0.032308087 1.0772858 0.042056076
0.14971213 -0.029106209 1.0780001 0.042056076
0.14009282 -0.028609822 1.0595001 0.042056076
0.13818158 -0.023448816 1.0615835 0.042056076
0.14372128 -0.026708068 1.064 0.042056076
0.1440911 -0.023818266 1.0705 0.042056076
0.14593481 -0.022904187 1.0753334 0.042056076
0.13683635 -0.016928747 1.0695001 0.042056076
0.1778605 -0.078541368 1.0274616 0.042056076
0.18593441 -0.07804247 1.027909 0.042056076
0.19472797 -0.077864096 1.0271112 0.042056076
0.19932806 -0.078531422 1.0273334 0.042056076
0.17757973 -0.07492891 1.0315001 0.042056076
0.18546981 -0.074947067 1.0317501 0.042056076
0.19313112 -0.074874423 1.03075 0.042056076
0.19827111 -0.074965231 1.0320001 0.042056076
0.17051284 -0.069260947 1.03725 0.042056076
0.178232 -0.070812598 1.0369287 0.042056076
0.18636289 -0.070797704 1.0367143 0.042056076
0.19379555 -0.070388854 1.0369376 0.042056076
0.19873685 -0.070392914 1.0370001 0.042056076
0.18037811 -0.067765906 1.0420001 0.042056076
0.18335024 -0.067765906 1.0420001 0.042056076
0.17014149 -0.065658212 1.0400001 0.042056076
0.17607665 -0.065658212 1.0400001 0.042056076
0.17822587 -0.062572576 1.0451429 0.042056076
0.18595383 -0.06301868 1.0455 0.042056076
0.19307189 -0.06572134 1.041 0.042056076
0.1980207 -0.06572134 1.041 0.042056076
0.17006128 -0.062031996 1.0455834 0.042056076
0.19399877 -0.062056556 1.046 0.042056076
0.19884498 -0.062016841 1.0453334 0.042056076
0.17773363 -0.055450462 1.0527501 0.042056076
0.18586415 -0.055485077 1.0534376 0.042056076
0.1942686 -0.056192316 1.0536923 0.042056076
0.19898897 -0.055513937 1.054 0.042056076
0.19320707 -0.052711602 1.0580001 0.042056076
0.18347095 -0.049933922 1.0560001 0.042056076
0.18631259 -0.047558464 1.0614547 0.042056076
0.19461785 -0.048426371 1.0617857 0.042056076
0.19930176 -0.04781241 1.061 0.042056076
0.17787845 -0.046786513 1.0605834 0.042056076
0.18639858 -0.043436684 1.0674 0.042056076
0.19350488 -0.043907192 1.0675715 0.042056076
0.16948856 -0.043015145 1.067 0.042056076
0.17760441 -0.043015145 1.067 0.042056076
0.19890854 -0.043015145 1.067 0.042056076
0.16997813 -0.039067078 1.0700835 0.042056076
0.17779557 -0.039493673 1.0706 0.042056076
0.18668458 -0.039479829 1.0702001 0.042056076
0.19419143 -0.039516721 1.0712001 0.042056076
0.19946779 -0.040083122 1.0700001 0.042056076
0.17910659 -0.035971291 1.0748001 0.042056076
0.18518238 -0.035863489 1.0756668 0.042056076
0.19393119 -0.03558246 1.0754001 0.042056076
0.19844796 -0.036198415 1.0755 0.042056076
0.17091677 -0.03519363 1.076 0.042056076
0.17071432 -0.03137875 1.0786002 0.042056076
0.17754625 -0.029918585 1.0777335 0.042056076
0.18503723 -0.031373348 1.0784 0.042056076
0.19365185 -0.03183724 1.077889 0.042056076
0.19909377 -0.031185636 1.0790001 0.042056076
0.16894005 -0.02821438 1.0830001 0.042056076
0.18736041 -0.028197011 1.0823334 0.042056076
0.19477883 -0.028059611 1.0827143 0.042056076
0.19964732 -0.027159898 1.082 0.042056076
0.1983203 -0.025195202 1.0860001 0.042056076
0.15493679 -0.028008377 1.0830001 0.042056076
0.16171557 -0.028210845 1.082875 0.042056076
0.15300494 -0.024180084 1.0868334 0.042056076
0.16240612 -0.025230002 1.0875001 0.042056076
0.17159179 -0.023661163 1.0867501 0.042056076
0.14843844 -0.021016574 1.0836667 0.042056076
0.15488009 -0.021147363 1.0903335 0.042056076
0.16153423 -0.020960189 1.0914001 0.042056076
0.16865197 -0.020967949 1.0918001 0.042056076
0.14465591 -0.018868685 1.0785 0.042056076
0.13924338 -0.013858708 1.0762857 0.042056076
0.1450105 -0.015368953 1.085 0.042056076
0.14805989 -0.014937525 1.0910001 0.042056076
0.15373883 -0.016241115 1.095 0.042056076
0.16114385 -0.016196728 1.0960001 0.042056076
0.15362816 -0.013649918 1.0986667 0.042056076
0.16262965 -0.013373101 1.0987999 0.042056076
0.13689823 -0.0093038073 1.0793333 0.042056076
0.14249715 -0.009701049 1.0855 0.042056076
0.14528282 -0.0080427648 1.0935 0.042056076
0.15012783 -0.010838386 1.0960001 0.042056076
0.15367611 -0.0088081844 1.1027501 0.042056076
0.16267742 -0.0098609412 1.103375 0.042056076
0.13877976 -0.0059050149 1.0833334 0.042056076
0.14812817 -0.0061731827 1.1005001 0.042056076
0.15547003 -0.0063842931 1.1068333 0.042056076
0.16162078 -0.0055357427 1.1074286 0.042056076
0.168865 -0.0050518531 1.1068 0.042056076
0.14400679 -0.0025042021 1.097 0.042056076
0.14588234 0.0001764039 1.1021429 0.042056076
0.16165319 -0.001478557 1.1107501 0.042056076
0.17013986 -0.0014788901 1.1110001 0.042056076
0.17838988 -0.023310853 1.0858183 0.042056076
0.1856533 -0.02293835 1.0868001 0.042056076
0.19271535 -0.024804622 1.0870001 0.042056076
0.19423276 -0.020961247 1.0904546 0.042056076
0.1991725 -0.021152982 1.0906668 0.042056076
0.17761272 -0.019104872 1.092 0.042056076
0.18579032 -0.01909175 1.0912501 0.042056076
0.16992687 -0.017090736 1.0960001 0.042056076
0.17814109 -0.01707904 1.09525 0.042056076
0.18690041 -0.016183905 1.095143 0.042056076
0.19438796 -0.016187819 1.0954287 0.042056076
0.19910344 -0.016047727 1.096 0.042056076
0.17033422 -0.013997412 1.0986251 0.042056076
0.17837165 -0.014156568 1.0994285 0.042056076
0.18481058 -0.013375458 1.099 0.042056076
0.19320399 -0.012946084 1.098 0.042056076
0.19842377 -0.012946084 1.098 0.042056076
0.17032075 -0.0090146363 1.1026001 0.042056076
0.17748491 -0.0093430495 1.104125 0.042056076
0.1857985 -0.0098631755 1.1036251 0.042056076
0.19430581 -0.0089950124 1.1026363 0.042056076
0.1992671 -0.0088043502 1.1026667 0.042056076
0.17839769 -0.005533406 1.107 0.042056076
0.18647288 -0.0056869583 1.107625 0.042056076
0.19338387 -0.0051620314 1.108 0.042056076
0.19812398 -0.0046362481 1.108 0.042056076
0.17862894 -0.0014792233 1.11125 0.042056076
0.18531677 -0.00042128138 1.1112223 0.042056076
0.0495377 0.032246325 1.1268333 0.042056076
0.053303219 0.034518693 1.131 0.042056076
0.057849936 0.034604289 1.1312858 0.042056076
0.065070018 0.03572607 1.1317999 0.042056076
0.073815897 0.035633009 1.1322501 0.042056076
0.049629062 0.039426826 1.133 0.042056076
0.057301074 0.039517336 1.1356251 0.042056076
0.065965801 0.039534971 1.1361251 0.042056076
0.074726008 0.039362006 1.1355716 0.042056076
0.081943206 0.039427459 1.133 0.042056076
0.089897782 0.039810475 1.1336666 0.042056076
0.073779799 0.042380139 1.1400001 0.042056076
0.049919803 0.04290859 1.1396668 0.042056076
0.057495765 0.042902313 1.1395001 0.042056076
0.066162124 0.042902313 1.1395 0.042056076
0.082002863 0.043598536 1.1388334 0.042056076
0.088296205 0.043405656 1.1385 0.042056076
0.050534535 0.046109371 1.1438 0.042056076
0.057665698 0.046289381 1.142875 0.042056076
0.066354677 0.046939597 1.1428001 0.042056076
0.074253492 0.047116227 1.1431251 0.042056076
0.081087738 0.04778355 1.1422001 0.042056076
0.090712667 0.047871545 1.1416668 0.042056076
0.049506515 0.050636403 1.149 0.042056076
0.057912033 0.050852932 1.1477501 0.042056076
0.066637255 0.051212847 1.1476666 0.042056076
0.073719919 0.051386427 1.1475 0.042056076
0.081846654 0.05189776 1.14675 0.042056076
0.08942195 0.051863816 1.146 0.042056076
0.050487962 0.054357398 1.1526667 0.042056076
0.058101248 0.054302383 1.1515 0.042056076
0.065764375 0.055397999 1.1515 0.042056076
0.058321644 0.057807446 1.155875 0.042056076
0.10461734 0.031392239 1.1248749 0.042056076
0.097489096 0.033828937 1.1259166 0.042056076
0.10729189 0.033585515 1.1322 0.042056076
0.11190879 0.031828925 1.131 0.042056076
0.11598165 0.035265699 1.1555001 0.042056076
0.11901426 0.034981787 1.1497999 0.042056076
0.12098382 0.033561863 1.1314 0.042056076
0.11220217 0.035238672 1.1486667 0.042056076
0.10836862 0.03638583 1.1390001 0.042056076
0.12125732 0.03635389 1.138 0.042056076
0.098218106 0.040551413 1.1343334 0.042056076
0.10476681 0.040580884 1.1351668 0.042056076
0.10701315 0.042426959 1.1384 0.042056076
0.11274581 0.038940959 1.1505001 0.042056076
0.11377063 0.041800939 1.1418183 0.042056076
0.12002397 0.039307524 1.14 0.042056076
0.12249585 0.042202704 1.134077 0.042056076
0.12963341 0.042103749 1.1338181 0.042056076
0.1309946 0.038201969 1.1286668 0.042056076
0.13836631 0.041942459 1.1347274 0.042056076
0.11607168 0.044236388 1.1366668 0.042056076
0.13424116 0.043927826 1.138 0.042056076
0.098096281 0.048162993 1.1416156 0.042056076
0.10563188 0.049173221 1.1418462 0.042056076
0.11398295 0.04947054 1.141 0.042056076
0.12228639 0.049241841 1.1402727 0.042056076
0.12982194 0.049687669 1.141 0.042056076
0.13751248 0.049069926 1.1418 0.042056076
0.10611288 0.057502791 1.14975 0.042056076
0.11375579 0.056403365 1.1496667 0.042056076
0.12144864 0.057518125 1.1500624 0.042056076
0.11418458 0.061003495 1.154 0.042056076
0.15371111 -0.0010255568 1.1111429 0.042056076
0.1478247 0.0023924462 1.11 0.042056076
0.15406308 0.0022306801 1.1170001 0.042056076
0.16278861 0.0026061593 1.1154287 0.042056076
0.16987051 0.0027596329 1.1161667 0.042056076
0.15586911 0.0038405412 1.1223334 0.042056076
0.16008991 0.0038394006 1.1220001 0.042056076
0.14352679 0.0072741522 1.104 0.042056076
0.14511123 0.0088509526 1.1086 0.042056076
0.15128556 0.0059623108 1.12 0.042056076
0.15486839 0.0091172988 1.1246154 0.042056076
0.16133085 0.010481873 1.1247001 0.042056076
0.1630353 0.0070289942 1.12025 0.042056076
0.16875489 0.0066752075 1.1205001 0.042056076
0.14804891 0.010195074 1.1170001 0.042056076
0.17052698 0.010695419 1.1247001 0.042056076
0.17833234 0.01119194 1.1255715 0.042056076
0.14110947 0.012208207 1.107 0.042056076
0.1498217 0.012406714 1.125 0.042056076
0.14373198 0.015423181 1.1110001 0.042056076
0.14423943 0.018711478 1.1182001 0.042056076
0.14839615 0.016685871 1.1250001 0.042056076
0.15411937 0.017238017 1.133 0.042056076
0.1566561 0.014584767 1.128 0.042056076
0.16194762 0.014578301 1.1275001 0.042056076
0.16213147 0.017713219 1.132 0.042056076
0.16976853 0.018048057 1.1337144 0.042056076
0.14567445 0.02483573 1.1260002 0.042056076
0.15128662 0.02116874 1.136 0.042056076
0.16213441 0.021174952 1.1363335 0.042056076
0.14283031 0.024076441 1.1205001 0.042056076
0.14879826 0.024356721 1.1335001 0.042056076
0.14365888 0.030645775 1.1270001 0.042056076
0.14556275 0.032982223 1.1335001 0.042056076
0.15414436 0.023075312 1.1411668 0.05033531
0.16144808 0.024171479 1.1416667 0.05033531
0.16871639 0.021187374 1.1370001 0.05033531
0.17035562 0.02441112 1.1415557 0.05033531
0.15536922 0.027045334 1.1470001 0.05033531
0.14952028 0.027722297 1.1390001 0.05033531
0.16249461 0.02790484 1.1465 0.05033531
0.170127 0.027904842 1.1465001 0.05033531
0.17557591 0.027904842 1.1465001 0.05033531
0.14842261 0.033577472 1.1416668 0.05033531
0.15451844 0.033690769 1.1504 0.05033531
0.16180186 0.032106325 1.1493334 0.05033531
0.17041963 0.032759916 1.1498183 0.05033531
0.17797662 0.033927426 1.1499287 0.05033531
0.16355857 0.035767812 1.154 0.05033531
0.16849597 0.036316413 1.154 0.05033531
0.14256223 0.040587157 1.1353334 0.05033531
0.14663707 0.040820789 1.1418334 0.05033531
0.15338649 0.040625505 1.15175 0.05033531
0.16181751 0.041492842 1.1550909 0.05033531
0.1704241 0.041323457 1.1559167 0.05033531
0.17799295 0.041294608 1.1551111 0.05033531
0.15587817 0.042351037 1.154 0.05033531
0.14327377 0.045128472 1.141 0.05033531
0.14588703 0.047072724 1.1487501 0.05033531
0.1540408 0.045748115 1.1566668 0.05033531
0.16199435 0.045820631 1.1585001 0.05033531
0.16987526 0.045866773 1.1596668 0.05033531
0.17749065 0.045840405 1.159 0.05033531
0.1863063 0.045840405 1.159 0.05033531
0.14748441 0.049611021 1.1570001 0.05033531
0.18559675 0.049895894 1.1654285 0.05033531
