# .PCD v0.7 - Point Cloud Data file format
VERSION 0.7
FIELDS x y z rgba
SIZE 4 4 4 4
TYPE F F F U
COUNT 1 1 1 1
WIDTH 1152
HEIGHT 1
VIEWPOINT 0 0 0 1 0 0 0
POINTS 1152
DATA ascii
-0.099845894 0.27169555 1.118 4280696079
-0.097807355 0.27193856 1.1190001 4279709956
-0.095850512 0.27242461 1.1210001 4279907335
-0.093718864 0.27242461 1.1210001 4281354527
-0.09150552 0.27218157 1.12 4282603567
-0.089375772 0.27218157 1.12 4282207015
-0.087246023 0.27218157 1.12 4281218066
-0.085192278 0.27242461 1.1210001 4281545235
-0.083208814 0.27291065 1.123 4281478928
-0.080928981 0.27242461 1.1210001 4281676307
-0.078656748 0.27193856 1.1190001 4281479696
-0.076528907 0.27193856 1.1190001 4281152784
-0.074467547 0.27218157 1.12 4281680925
-0.072402388 0.27242461 1.1210001 4282275115
-0.070208058 0.27218157 1.12 4281947175
-0.068078309 0.27218157 1.12 4280894740
-0.065889679 0.27193856 1.1190001 4279513600
-0.063761838 0.27193856 1.1190001 4279447808
-0.061578911 0.27169555 1.118 4280632596
-0.059346613 0.27120954 1.1160001 4281487905
-0.057121918 0.27072346 1.1140001 4281224733
-0.054954208 0.27048045 1.113 4280829974
-0.052837774 0.27048045 1.113 4280698388
-0.050766908 0.27072346 1.1140001 4280369423
-0.04864857 0.27072346 1.1140001 4279777286
-0.046572 0.27096647 1.115 4280763412
-0.044451762 0.27096647 1.115 4281881382
-0.042369492 0.27120954 1.1160001 4282078252
-0.040283415 0.27145255 1.1170001 4282143278
-0.038296022 0.27242461 1.1210001 4282603577
-0.036261156 0.27315366 1.1240001 4284115282
-0.034123804 0.27315366 1.1240001 4285100388
-0.031957995 0.27291065 1.123 4286019956
-0.029769432 0.27242461 1.1210001 4286743681
-0.027613129 0.27218157 1.12 4287138441
-0.025483383 0.27218157 1.12 4287269773
-0.023353636 0.27218157 1.12 4287401361
-0.02122389 0.27218157 1.12 4287598741
-0.019094143 0.27218157 1.12 4287730327
-0.016949249 0.27193856 1.1190001 4287927193
-0.01480816 0.27169555 1.118 4288190365
-0.012693561 0.27193856 1.1190001 4288256157
-0.010565716 0.27193856 1.1190001 4288387997
-0.008445411 0.27218157 1.12 4288651169
-0.0063156649 0.27218157 1.12 4288651165
-0.0041859187 0.27218157 1.12 4288782751
-0.0020598441 0.27266765 1.1220001 4289177762
7.3771072e-05 0.27291065 1.123 4281149985
0.002215124 0.27363971 1.126 4280558102
0.015147061 0.32078543 1.3200001 4283452742
0.01765712 0.32078543 1.3200001 4289571238
0.017249048 0.27436876 1.1290001 4289045412
0.01927565 0.27266765 1.1220001 4289045414
0.021390118 0.27242461 1.1210001 4288979368
0.023479803 0.27193856 1.1190001 4288650403
0.025584761 0.27169555 1.118 4288321438
0.02768592 0.27145255 1.1170001 4287795349
0.029809961 0.27145255 1.1170001 4287203212
0.031876825 0.27096647 1.115 4286742657
0.033966571 0.27072346 1.1140001 4285953906
0.036052518 0.27048045 1.113 4285624940
0.038134657 0.27023745 1.1120001 4285032803
0.040140606 0.26950836 1.1090001 4284440666
0.042211339 0.26926535 1.108 4284045395
0.044278268 0.26902235 1.107 4283584844
0.046383295 0.26902235 1.107 4282729789
0.048488319 0.26902235 1.107 4282006064
0.050639048 0.26926535 1.108 4280098320
0.052745979 0.26926535 1.108 4280098831
0.059279997 0.27023745 1.1120001 4279770126
0.061394528 0.27023745 1.1120001 4279836435
0.063509062 0.27023745 1.1120001 4281678387
0.065092474 0.26805025 1.103 4282796869
0.067007147 0.2673212 1.1 4283125836
0.068847597 0.26634914 1.0960001 4283322961
0.070931703 0.26634914 1.0960001 4283586133
0.073015809 0.26634914 1.0960001 4283388240
0.075236961 0.26683518 1.098 4282992971
0.077395298 0.26707819 1.0990001 4282466116
0.079629764 0.26756424 1.1010001 4281808186
0.081871837 0.26805025 1.103 4282202175
0.08404538 0.26829329 1.1040001 4282596933
0.086222731 0.2685363 1.105 4284439653
0.088323951 0.2685363 1.105 4286150271
0.090425171 0.2685363 1.105 4287006093
0.092526399 0.2685363 1.105 4287532437
0.094713256 0.26877934 1.1060001 4287466901
0.09690392 0.26902235 1.107 4287466901
0.099008948 0.26902235 1.107 4287861659
0.10120531 0.26926535 1.108 4288124831
0.10331224 0.26926535 1.108 4288256417
0.10541917 0.26926535 1.108 4288453796
0.10742905 0.26902235 1.107 4288651175
0.10963302 0.26926535 1.108 4288716968
0.11173995 0.26926535 1.108 4288782761
0.11384688 0.26926535 1.108 4288914347
0.11605846 0.26950836 1.1090001 4289045933
0.11827384 0.2697514 1.11 4289045933
0.12038457 0.2697514 1.11 4289045933
0.1224953 0.2697514 1.11 4289111980
0.12460604 0.2697514 1.11 4289177773
0.1266026 0.26950836 1.1090001 4289177773
0.12871143 0.26950836 1.1090001 4289243566
0.13082026 0.26950836 1.1090001 4289243566
0.13292909 0.26950836 1.1090001 4289243566
0.13515969 0.2697514 1.11 4289178287
0.13727041 0.2697514 1.11 4289178287
0.13925558 0.26950836 1.1090001 4289244080
0.14136441 0.26950836 1.1090001 4289244080
0.14347324 0.26950836 1.1090001 4289309875
0.14558206 0.26950836 1.1090001 4289375668
0.14782406 0.2697514 1.11 4289441461
0.1499348 0.2697514 1.11 4289441461
0.15218252 0.26999444 1.1110001 4289441461
0.15429515 0.26999444 1.1110001 4289573047
0.15640777 0.26999444 1.1110001 4289573047
0.15852042 0.26999444 1.1110001 4289573047
0.16063304 0.26999444 1.1110001 4289573049
0.16274567 0.26999444 1.1110001 4289638842
0.16485831 0.26999444 1.1110001 4289638842
0.16682065 0.2697514 1.11 4289507256
0.16893138 0.2697514 1.11 4289507767
0.1710421 0.2697514 1.11 4289573560
0.17315283 0.2697514 1.11 4289639353
0.17557935 0.27023745 1.1120001 4289573560
0.17769389 0.27023745 1.1120001 4289507767
0.17980842 0.27023745 1.1120001 4289441974
0.18175937 0.26999444 1.1110001 4289507765
0.183872 0.26999444 1.1110001 4289573558
0.18581723 0.2697514 1.11 4289639350
0.18809727 0.26999444 1.1110001 4289771190
0.1902099 0.26999444 1.1110001 4289310639
0.19284184 0.27072346 1.1140001 4288586914
0.19601023 0.27218157 1.12 4288455326
0.19813998 0.27218157 1.12 4288586912
-0.36295289 0.27504611 1.123 4285758342
-0.35728317 0.27235198 1.1120001 4285429379
-0.35452986 0.27186215 1.11 4285560711
-0.35273662 0.27210706 1.1110001 4285758603
-0.350624 0.27210706 1.1110001 4285429638
-0.34851137 0.27210706 1.1110001 4285166466
-0.34608692 0.27186215 1.11 4285429638
-0.3439762 0.27186215 1.11 4285693064
-0.34155747 0.2716172 1.1090001 4285429379
-0.33914256 0.27137229 1.108 4285034621
-0.33703563 0.27137229 1.108 4285363586
-0.33523098 0.2716172 1.1090001 4285297280
-0.33342254 0.27186215 1.11 4285297282
-0.33131182 0.27186215 1.11 4285428866
-0.32949767 0.27210706 1.1110001 4285691268
-0.32709035 0.27186215 1.11 4285954440
-0.32410127 0.27112737 1.107 4285888647
-0.32199624 0.27112737 1.107 4285493889
-0.31989124 0.27112737 1.107 4285691268
-0.31778622 0.27112737 1.107 4285691268
-0.31568119 0.27112737 1.107 4285559682
-0.31385943 0.27137229 1.108 4285363073
-0.3117525 0.27137229 1.108 4285297282
-0.30964556 0.27137229 1.108 4284968574
-0.30753863 0.27137229 1.108 4284836988
-0.30598304 0.27186215 1.11 4284968574
-0.30414608 0.27210706 1.1110001 4285428096
-0.30203345 0.27210706 1.1110001 4284901752
-0.29965085 0.27186215 1.11 4286152073
-0.29727206 0.2716172 1.1090001 4290691790
-0.29516324 0.2716172 1.1090001 4290230725
-0.2930544 0.2716172 1.1090001 4290494151
-0.29094559 0.2716172 1.1090001 4290361793
-0.28883675 0.2716172 1.1090001 4290624965
-0.28646937 0.27137229 1.108 4290296254
-0.28513238 0.27210706 1.1110001 4290362047
-0.28327447 0.27235198 1.1120001 4290362047
-0.28115994 0.27235198 1.1120001 4290362047
-0.2790454 0.27235198 1.1120001 4290362047
-0.27693087 0.27235198 1.1120001 4290230461
-0.27481633 0.27235198 1.1120001 4290033596
-0.27245659 0.27210706 1.1110001 4289967803
-0.27034396 0.27210706 1.1110001 4289967035
-0.2679899 0.27186215 1.11 4290032828
-0.26587915 0.27186215 1.11 4289967805
-0.26376843 0.27186215 1.11 4289967805
-0.26165771 0.27186215 1.11 4289967805
-0.25954697 0.27186215 1.11 4289967805
-0.25743625 0.27186215 1.11 4289902012
-0.2553255 0.27186215 1.11 4289902012
-0.25321478 0.27186215 1.11 4289967805
-0.25087783 0.2716172 1.1090001 4289967805
-0.24876899 0.2716172 1.1090001 4289770428
-0.24688259 0.27186215 1.11 4289573049
-0.24455133 0.2716172 1.1090001 4289441720
-0.2424425 0.2716172 1.1090001 4289375927
-0.24033368 0.2716172 1.1090001 4289178548
-0.23801005 0.27137229 1.108 4288981169
-0.23590311 0.27137229 1.108 4288718769
-0.23379619 0.27137229 1.108 4287929511
-0.23168926 0.27137229 1.108 4287601061
-0.22958234 0.27137229 1.108 4287272614
-0.2272701 0.27112737 1.107 4284246394
-0.22475827 0.27063754 1.105 4282668131
-0.22225405 0.27014768 1.103 4281418573
-0.21955784 0.26941293 1.1 4281090372
-0.21687302 0.26867816 1.097 4281090362
-0.21478702 0.26867816 1.097 4280893488
-0.21250711 0.26843324 1.0960001 4280498981
-0.21042301 0.26843324 1.0960001 4280235548
-0.2083389 0.26843324 1.0960001 4280234778
-0.20663117 0.2689231 1.098 4280168472
-0.20510212 0.26965785 1.1010001 4280365081
-0.20337728 0.27014768 1.103 4280562460
-0.20127985 0.27014768 1.103 4280036116
-0.19918244 0.27014768 1.103 4279443207
-0.19708501 0.27014768 1.103 4279572996
-0.19481081 0.26990277 1.102 4280229385
-0.19271529 0.26990277 1.102 4280754189
-0.19079275 0.27014768 1.103 4280556553
-0.18886641 0.27039263 1.1040001 4280555783
-0.18727461 0.27112737 1.107 4280556553
-0.18583865 0.27210706 1.1110001 4280623886
-0.18422213 0.27284181 1.1140001 4280690707
-0.1821038 0.27284181 1.1140001 4281019931
-0.18014704 0.27308673 1.115 4281283362
-0.17818646 0.27333167 1.1160001 4281086755
-0.17606431 0.27333167 1.1160001 4281020193
-0.17394218 0.27333167 1.1160001 4281940782
-0.17166609 0.27308673 1.115 4283387976
-0.16939378 0.27284181 1.1140001 4284309340
-0.16727544 0.27284181 1.1140001 4285362030
-0.16515711 0.27284181 1.1140001 4286414718
-0.16303878 0.27284181 1.1140001 4286940808
-0.16106489 0.27308673 1.115 4287335055
-0.15880209 0.27284181 1.1140001 4287532434
-0.15668376 0.27284181 1.1140001 4287927193
-0.15470417 0.27308673 1.115 4288453537
-0.15272078 0.27333167 1.1160001 4288519332
-0.15073359 0.27357659 1.1170001 4288716711
-0.14860955 0.27357659 1.1170001 4288979881
-0.14674778 0.27406642 1.1190001 4289045674
-0.14449069 0.2738215 1.118 4288980394
-0.14236476 0.2738215 1.118 4288980394
-0.14023881 0.2738215 1.118 4289046187
-0.13811286 0.2738215 1.118 4289111980
-0.13598692 0.2738215 1.118 4288783014
-0.13386098 0.2738215 1.118 4288454047
-0.13173503 0.2738215 1.118 4288322204
-0.12949316 0.27357659 1.1170001 4287993237
-0.12736912 0.27357659 1.1170001 4287467145
-0.12524508 0.27357659 1.1170001 4287138179
-0.12312105 0.27357659 1.1170001 4286546551
-0.120997 0.27357659 1.1170001 4285691495
-0.11887296 0.27357659 1.1170001 4285165403
-0.11674892 0.27357659 1.1170001 4284442448
-0.11462488 0.27357659 1.1170001 4283193661
-0.11260155 0.2738215 1.118 4282075691
-0.11047561 0.2738215 1.118 4281090075
-0.10834967 0.2738215 1.118 4280432657
-0.10622372 0.2738215 1.118 4280169485
-0.10400467 0.27357659 1.1170001 4280235532
-0.10188062 0.27357659 1.1170001 4280563982
-0.099845894 0.2738215 1.118 4280498189
-0.097807355 0.27406642 1.1190001 4280432398
-0.095850512 0.27455625 1.1210001 4280696083
-0.093718864 0.27455625 1.1210001 4281485345
-0.09150552 0.27431133 1.12 4282076455
-0.089375772 0.27431133 1.12 4281549086
-0.087246023 0.27431133 1.12 4280889359
-0.085192278 0.27455625 1.1210001 4281677335
-0.082986534 0.27431133 1.12 4281676822
-0.080784597 0.27406642 1.1190001 4281808408
-0.07851617 0.27357659 1.1170001 4281677334
-0.076323733 0.27333167 1.1160001 4281415702
-0.074268088 0.27357659 1.1170001 4281812257
-0.072208628 0.2738215 1.118 4282406190
-0.070145369 0.27406642 1.1190001 4282341422
-0.068078309 0.27431133 1.12 4281223195
-0.066007443 0.27455625 1.1210001 4280171018
-0.06381882 0.27431133 1.12 4280104971
-0.061689071 0.27431133 1.12 4281026586
-0.059452966 0.2738215 1.118 4281552930
-0.057224471 0.27333167 1.1160001 4281487135
-0.055052955 0.27308673 1.115 4281355549
-0.052932717 0.27308673 1.115 4281355804
-0.050903622 0.27357659 1.1170001 4280303116
-0.048779581 0.27357659 1.1170001 4279579138
-0.046697307 0.2738215 1.118 4280499729
-0.044611234 0.27406642 1.1190001 4281617701
-0.042445421 0.2738215 1.118 4282011692
-0.040355545 0.27406642 1.1190001 4282405685
-0.038261861 0.27431133 1.12 4283129155
-0.036132116 0.27431133 1.12 4284377943
-0.034002367 0.27431133 1.12 4285428842
-0.031844165 0.27406642 1.1190001 4286217335
-0.029689763 0.2738215 1.118 4286941060
-0.027539164 0.27357659 1.1170001 4287270027
-0.025415123 0.27357659 1.1170001 4287401359
-0.023291081 0.27357659 1.1170001 4287467154
-0.02118599 0.2738215 1.118 4287664534
-0.019060047 0.2738215 1.118 4287861913
-0.016918955 0.27357659 1.1170001 4288058779
-0.014794915 0.27357659 1.1170001 4288321951
-0.012670873 0.27357659 1.1170001 4288387743
-0.010556274 0.2738215 1.118 4288519583
-0.008437871 0.27406642 1.1190001 4288716962
-0.0063100262 0.27406642 1.1190001 4288716960
-0.0041821813 0.27406642 1.1190001 4288914337
-0.0020561724 0.27431133 1.12 4289440421
7.3705385e-05 0.27480119 1.1220001 4281807915
0.015147061 0.3232955 1.3200001 4284176467
0.017724004 0.32452011 1.325 4290031789
0.01723377 0.27627072 1.128 4289242791
0.019258469 0.27455625 1.1210001 4289177000
0.021351958 0.27406642 1.1190001 4289110954
0.023437835 0.27357659 1.1170001 4289110954
0.025538992 0.27333167 1.1160001 4288979368
0.027636347 0.27308673 1.115 4288650658
0.029756585 0.27308673 1.115 4288190107
0.031848237 0.27284181 1.1140001 4287664272
0.033905588 0.27235198 1.1120001 4286546043
0.035987731 0.27210706 1.1110001 4286217077
0.038066071 0.27186215 1.11 4285624940
0.040104412 0.27137229 1.108 4285032803
0.04217324 0.27112737 1.107 4284834911
0.044238269 0.27088246 1.1060001 4284506200
0.046341393 0.27088246 1.1060001 4283782477
0.048532121 0.27137229 1.108 4282927164
0.05068475 0.2716172 1.1090001 4281611559
0.052793581 0.2716172 1.1090001 4281677350
0.059546545 0.27357659 1.1170001 4281677609
0.061670586 0.27357659 1.1170001 4281020193
0.063109279 0.27063754 1.105 4281480492
0.065210499 0.27063754 1.105 4281349422
0.067189895 0.27014768 1.103 4281480239
0.068973221 0.2689231 1.098 4281414446
0.071061134 0.2689231 1.098 4281677618
0.073082432 0.26867816 1.097 4281742900
0.075305484 0.26916802 1.0990001 4281873975
0.077395298 0.26916802 1.0990001 4281808184
0.079629764 0.26965785 1.1010001 4281807414
0.081871837 0.27014768 1.103 4282531139
0.08396925 0.27014768 1.103 4283386449
0.086144701 0.27039263 1.1040001 4285491825
0.088323951 0.27063754 1.105 4286873478
0.090425171 0.27063754 1.105 4287137166
0.092526399 0.27063754 1.105 4287466644
0.094713256 0.27088246 1.1060001 4287532437
0.09690392 0.27112737 1.107 4287467155
0.099008948 0.27112737 1.107 4287993499
0.10120531 0.27137229 1.108 4288256417
0.10331224 0.27137229 1.108 4288388003
0.10541917 0.27137229 1.108 4288585382
0.10742905 0.27112737 1.107 4288716968
0.10963302 0.27137229 1.108 4288782761
0.11173995 0.27137229 1.108 4288848554
0.11384688 0.27137229 1.108 4288980140
0.11605846 0.2716172 1.1090001 4289045933
0.11827384 0.27186215 1.11 4288980140
0.12038457 0.27186215 1.11 4289045933
0.12227459 0.27137229 1.108 4289111980
0.12438152 0.27137229 1.108 4289243566
0.12637429 0.27112737 1.107 4289309359
0.12847932 0.27112737 1.107 4289309359
0.13058434 0.27112737 1.107 4289309359
0.13268936 0.27112737 1.107 4289309359
0.13491614 0.27137229 1.108 4289178287
0.13702308 0.27137229 1.108 4289244080
0.13913 0.27137229 1.108 4289309873
0.14123693 0.27137229 1.108 4289309873
0.14321449 0.27112737 1.107 4289375668
0.14518826 0.27088246 1.1060001 4289375668
0.14729138 0.27088246 1.1060001 4289375668
0.14952958 0.27112737 1.107 4289441461
0.15177158 0.27137229 1.108 4289375668
0.15360075 0.27088246 1.1060001 4289507254
0.15598543 0.27137229 1.108 4289507254
0.15809235 0.27137229 1.108 4289507254
0.16019928 0.27137229 1.108 4289507256
0.1623062 0.27137229 1.108 4289573049
0.16441314 0.27137229 1.108 4289573049
0.16636978 0.27112737 1.107 4289507256
0.16847481 0.27112737 1.107 4289507767
0.17057984 0.27112737 1.107 4289573560
0.17284085 0.27137229 1.108 4289639353
0.17510568 0.2716172 1.1090001 4289639353
0.1772145 0.2716172 1.1090001 4289573560
0.17932333 0.2716172 1.1090001 4289573560
0.18126856 0.27137229 1.108 4289573558
0.18337548 0.27137229 1.108 4289639351
0.18548241 0.27137229 1.108 4289507764
0.18775865 0.2716172 1.1090001 4289639350
0.18986748 0.2716172 1.1090001 4289179053
0.19232252 0.27210706 1.1110001 4288521121
0.19443516 0.27210706 1.1110001 4288389533
-0.36230651 0.27668792 1.1210001 4285692036
-0.35696188 0.27421969 1.1110001 4285824137
-0.35452986 0.2739729 1.11 4285955469
-0.35241914 0.2739729 1.11 4285231746
-0.350624 0.27421969 1.1110001 4285494918
-0.34851137 0.27421969 1.1110001 4285889930
-0.34608692 0.2739729 1.11 4285626758
-0.3439762 0.2739729 1.11 4285297791
-0.3412495 0.27347922 1.108 4285494657
-0.33883646 0.2732324 1.107 4285231485
-0.33703563 0.27347922 1.108 4285362557
-0.33492869 0.27347922 1.108 4285362557
-0.33312216 0.27372605 1.1090001 4285559682
-0.33101332 0.27372605 1.1090001 4285494143
-0.32920107 0.2739729 1.11 4285427837
-0.32650098 0.27347922 1.108 4285493630
-0.32380852 0.27298558 1.1060001 4285493630
-0.3217054 0.27298558 1.1060001 4285296251
-0.31960228 0.27298558 1.1060001 4285230458
-0.31749916 0.27298558 1.1060001 4285428350
-0.31568119 0.2732324 1.107 4285822854
-0.31357616 0.2732324 1.107 4285363073
-0.3117525 0.27347922 1.108 4285034110
-0.30964556 0.27347922 1.108 4285494661
-0.30753863 0.27347922 1.108 4285626506
-0.30598304 0.2739729 1.11 4284836988
-0.30414608 0.27421969 1.1110001 4285362303
-0.30203345 0.27421969 1.1110001 4284638834
-0.29965085 0.2739729 1.11 4287467420
-0.29727206 0.27372605 1.1090001 4290625484
-0.29516324 0.27372605 1.1090001 4290362311
-0.29279014 0.27347922 1.108 4290099393
-0.29068321 0.27347922 1.108 4290296000
-0.2885763 0.27347922 1.108 4290493379
-0.28646937 0.27347922 1.108 4290296254
-0.28461909 0.27372605 1.1090001 4290296254
-0.282765 0.2739729 1.11 4290362047
-0.28065428 0.2739729 1.11 4290362047
-0.2787945 0.27421969 1.1110001 4290296254
-0.27643281 0.2739729 1.11 4290164668
-0.27432209 0.2739729 1.11 4289902010
-0.2719661 0.27372605 1.1090001 4289836217
-0.26961395 0.27347922 1.108 4289967289
-0.26750702 0.27347922 1.108 4290033082
-0.26540008 0.27347922 1.108 4290098621
-0.26329315 0.27347922 1.108 4290164414
-0.26118624 0.27347922 1.108 4290033598
-0.25907931 0.27347922 1.108 4290033598
-0.25697237 0.27347922 1.108 4289967805
-0.25486544 0.27347922 1.108 4289902012
-0.25275853 0.27347922 1.108 4290099391
-0.25042537 0.2732324 1.107 4290033598
-0.24832036 0.2732324 1.107 4289836221
-0.24643776 0.27347922 1.108 4289573049
-0.2441103 0.2732324 1.107 4289507256
-0.24178666 0.27298558 1.1060001 4289441463
-0.23946683 0.27273878 1.105 4289244341
-0.2373656 0.27273878 1.105 4289046962
-0.23526439 0.27273878 1.105 4288652976
-0.23316316 0.27273878 1.105 4288324269
-0.23127104 0.27298558 1.1060001 4288060845
-0.22916791 0.27298558 1.1060001 4287863981
-0.2268595 0.27273878 1.105 4286022292
-0.22435147 0.27224511 1.103 4283654257
-0.22205254 0.27199829 1.102 4281812820
-0.21975744 0.27175146 1.1010001 4281155654
-0.21746612 0.27150464 1.1 4281353025
-0.21517861 0.27125785 1.0990001 4281024308
-0.2130888 0.27125785 1.0990001 4280564008
-0.210807 0.27101102 1.098 4280300319
-0.20871907 0.27101102 1.098 4280102679
-0.20663117 0.27101102 1.098 4280233495
-0.20472953 0.27125785 1.0990001 4280167702
-0.2030085 0.27175146 1.1010001 4280101652
-0.20109737 0.27199829 1.102 4280759580
-0.19936301 0.27249196 1.1040001 4280232978
-0.19744237 0.27273878 1.105 4280033546
-0.19534115 0.27273878 1.105 4279966983
-0.19323993 0.27273878 1.105 4280425737
-0.19131167 0.27298558 1.1060001 4280688650
-0.18937963 0.2732324 1.107 4280951568
-0.18778212 0.2739729 1.11 4281149460
-0.18583865 0.27421969 1.1110001 4280953109
-0.18405676 0.27471334 1.113 4280888345
-0.18194033 0.27471334 1.113 4281020190
-0.17966233 0.27446651 1.1120001 4281086755
-0.1775478 0.27446651 1.1120001 4281217572
-0.17543326 0.27446651 1.1120001 4281217318
-0.17316286 0.27421969 1.1110001 4282269495
-0.17089628 0.2739729 1.11 4283848529
-0.16878554 0.2739729 1.11 4284704100
-0.16667482 0.2739729 1.11 4285888120
-0.16471234 0.27421969 1.1110001 4286743172
-0.16274606 0.27446651 1.1120001 4287006344
-0.16063152 0.27446651 1.1120001 4287335055
-0.15851699 0.27446651 1.1120001 4287795606
-0.15654311 0.27471334 1.113 4288189852
-0.15442666 0.27471334 1.113 4288518817
-0.15231024 0.27471334 1.113 4288584610
-0.15032874 0.27496016 1.1140001 4288781989
-0.14860955 0.27570063 1.1170001 4288914090
-0.14648551 0.27570063 1.1170001 4289045676
-0.14423221 0.27545384 1.1160001 4289045676
-0.14211008 0.27545384 1.1160001 4289111469
-0.13998793 0.27545384 1.1160001 4289177519
-0.1378658 0.27545384 1.1160001 4289375152
-0.13562202 0.27520698 1.115 4289046186
-0.13350178 0.27520698 1.115 4288783012
-0.13138156 0.27520698 1.115 4288585633
-0.12914538 0.27496016 1.1140001 4288256922
-0.12702703 0.27496016 1.1140001 4287861649
-0.1249087 0.27496016 1.1140001 4287401352
-0.12279037 0.27496016 1.1140001 4286743421
-0.12067203 0.27496016 1.1140001 4286020207
-0.11866011 0.27520698 1.115 4285625703
-0.11643536 0.27496016 1.1140001 4285165919
-0.1142144 0.27471334 1.113 4284311121
-0.11209796 0.27471334 1.113 4283456580
-0.10998153 0.27471334 1.113 4282799162
-0.1078651 0.27471334 1.113 4281746985
-0.10574866 0.27471334 1.113 4280957723
-0.10363223 0.27471334 1.113 4280826135
-0.10151578 0.27471334 1.113 4281089047
-0.099488661 0.27496016 1.1140001 4281220631
-0.097457729 0.27520698 1.115 4281483805
-0.095508501 0.27570063 1.1170001 4281747490
-0.093468063 0.27594745 1.118 4281747235
-0.091260418 0.27570063 1.1170001 4281418270
-0.089136377 0.27570063 1.1170001 4281154330
-0.086934432 0.27545384 1.1160001 4281087254
-0.084812291 0.27545384 1.1160001 4281480472
-0.08269015 0.27545384 1.1160001 4281742874
-0.080495819 0.27520698 1.115 4281874460
-0.078305289 0.27496016 1.1140001 4281743644
-0.076186955 0.27496016 1.1140001 4281481498
-0.074002124 0.27471334 1.113 4281548316
-0.072014861 0.27520698 1.115 4281813028
-0.069957308 0.27545384 1.1160001 4281879591
-0.067956746 0.27594745 1.118 4282011432
-0.065889679 0.27619427 1.1190001 4281024794
-0.063761838 0.27619427 1.1190001 4280498704
-0.061633993 0.27619427 1.1190001 4280367632
-0.059399791 0.27570063 1.1170001 4280499218
-0.057173193 0.27520698 1.115 4280565522
-0.055052955 0.27520698 1.115 4280499983
-0.052932717 0.27520698 1.115 4280302604
-0.050903622 0.27570063 1.1170001 4279907846
-0.048823249 0.27594745 1.118 4280302091
-0.046739079 0.27619427 1.1190001 4281748771
-0.044571362 0.27594745 1.118 4282405935
-0.042445421 0.27594745 1.118 4282142513
-0.040283415 0.27570063 1.1170001 4282668090
-0.038159374 0.27570063 1.1170001 4283588940
-0.036003072 0.27545384 1.1160001 4284772193
-0.03388093 0.27545384 1.1160001 4285757553
-0.031730331 0.27520698 1.115 4286480509
-0.029583538 0.27496016 1.1140001 4287072648
-0.0274652 0.27496016 1.1140001 4287335820
-0.025346864 0.27496016 1.1140001 4287401359
-0.023228526 0.27496016 1.1140001 4287532947
-0.021129141 0.27520698 1.115 4287796120
-0.019008901 0.27520698 1.115 4287927706
-0.016888663 0.27520698 1.115 4287993499
-0.014768424 0.27520698 1.115 4288256671
-0.012648186 0.27520698 1.115 4288453536
-0.01053739 0.27545384 1.1160001 4288585376
-0.0084227892 0.27570063 1.1170001 4288782755
-0.0062987478 0.27570063 1.1170001 4288782753
-0.0041747061 0.27570063 1.1170001 4289045923
-0.0020525006 0.27594745 1.118 4289572008
7.3705385e-05 0.27693474 1.1220001 4280886815
0.0022092222 0.27718157 1.123 4281018142
0.015204437 0.32703969 1.325 4283847502
0.015021928 0.27718157 1.123 4289900205
0.017203214 0.27792203 1.126 4289176998
0.019206932 0.27594745 1.118 4289045414
0.021313794 0.27570063 1.1170001 4288914088
0.02339587 0.27520698 1.115 4289045674
0.025516108 0.27520698 1.115 4289111467
0.027611561 0.27496016 1.1140001 4288979880
0.029729899 0.27496016 1.1140001 4288650915
0.031791054 0.27446651 1.1120001 4288322715
0.033844609 0.2739729 1.11 4287598990
0.035922945 0.27372605 1.1090001 4287138437
0.037963189 0.2732324 1.107 4286480507
0.040032018 0.27298558 1.1060001 4285822577
0.042135142 0.27298558 1.1060001 4285559147
0.044198271 0.27273878 1.105 4285361766
0.046341393 0.27298558 1.1060001 4284835165
0.048532121 0.27347922 1.108 4284243024
0.05068475 0.27372605 1.1090001 4281545766
0.05307921 0.27520698 1.115 4281611557
0.065328531 0.2732324 1.107 4282138422
0.067433551 0.2732324 1.107 4281677358
0.069161676 0.27175146 1.1010001 4281414188
0.071190573 0.27150464 1.1 4281611567
0.073282287 0.27150464 1.1 4281742641
0.075374007 0.27150464 1.1 4281940022
0.077536143 0.27175146 1.1010001 4282136633
0.079702087 0.27199829 1.102 4282333501
0.081797607 0.27199829 1.102 4283254603
0.083893128 0.27199829 1.102 4285096553
0.085988641 0.27199829 1.102 4286676098
0.088084161 0.27199829 1.102 4287465614
0.090261512 0.27224511 1.103 4287334543
0.092358932 0.27224511 1.103 4287598228
0.094541989 0.27249196 1.1040001 4287795607
0.096728839 0.27273878 1.105 4287730327
0.09874063 0.27249196 1.1040001 4288125085
0.10083996 0.27249196 1.1040001 4288256417
0.10303251 0.27273878 1.105 4288453796
0.10513373 0.27273878 1.105 4288585382
0.10733201 0.27298558 1.1060001 4288716968
0.10943513 0.27298558 1.1060001 4288782761
0.11153825 0.27298558 1.1060001 4288848554
0.11364137 0.27298558 1.1060001 4288980140
0.1157445 0.27298558 1.1060001 4289045933
0.11784763 0.27298558 1.1060001 4288980140
0.11995075 0.27298558 1.1060001 4289045933
0.12205388 0.27298558 1.1060001 4289111980
0.12426926 0.2732324 1.107 4289243566
0.12626013 0.27298558 1.1060001 4289309359
0.12836325 0.27298558 1.1060001 4289375152
0.13046639 0.27298558 1.1060001 4289375152
0.13256951 0.27298558 1.1060001 4289375152
0.13467263 0.27298558 1.1060001 4289309873
0.13689941 0.2732324 1.107 4289309873
0.13900444 0.2732324 1.107 4289309873
0.14123693 0.27347922 1.108 4289375666
0.14321449 0.2732324 1.107 4289375666
0.14518826 0.27298558 1.1060001 4289375666
0.14729138 0.27298558 1.1060001 4289375668
0.14952958 0.2732324 1.107 4289375668
0.1516346 0.2732324 1.107 4289441461
0.15360075 0.27298558 1.1060001 4289573047
0.15570387 0.27298558 1.1060001 4289573047
0.15780699 0.27298558 1.1060001 4289507254
0.15991013 0.27298558 1.1060001 4289507254
0.16201325 0.27298558 1.1060001 4289638840
0.16396798 0.27273878 1.105 4289638840
0.16606919 0.27273878 1.105 4289573047
0.16801824 0.27249196 1.1040001 4289441974
0.17027165 0.27273878 1.105 4289507767
0.17252888 0.27298558 1.1060001 4289507767
0.174632 0.27298558 1.1060001 4289573560
0.17673512 0.27298558 1.1060001 4289573560
0.17883824 0.27298558 1.1060001 4289573560
0.18094137 0.27298558 1.1060001 4289573558
0.18287899 0.27273878 1.105 4289639351
0.18498021 0.27273878 1.105 4289441971
0.18725075 0.27298558 1.1060001 4289573557
0.18935387 0.27298558 1.1060001 4289113260
0.1918032 0.27347922 1.108 4288586914
0.19391012 0.27347922 1.108 4288521119
-0.36248755 0.27732721 1.115 4287008151
-0.35907453 0.27633235 1.1110001 4285165692
-0.35567668 0.27533743 1.107 4286086796
-0.35357165 0.27533743 1.107 4285560965
-0.35178411 0.27558616 1.108 4285232000
-0.34999278 0.27583489 1.1090001 4285758344
-0.34757027 0.27558616 1.108 4285757829
-0.34515154 0.27533743 1.107 4285363071
-0.34273666 0.27508873 1.1060001 4285100154
-0.34032553 0.27484 1.105 4285363326
-0.33791822 0.2745913 1.1040001 4284967796
-0.33581889 0.2745913 1.1040001 4285164664
-0.33402187 0.27484 1.105 4285362043
-0.33222103 0.27508873 1.1060001 4285493115
-0.33041635 0.27533743 1.107 4285296250
-0.32860792 0.27558616 1.108 4285427322
-0.32591164 0.27508873 1.1060001 4285296250
-0.32322297 0.2745913 1.1040001 4285427322
-0.32112366 0.2745913 1.1040001 4285296250
-0.31873536 0.27434254 1.103 4285493629
-0.31663793 0.27434254 1.103 4285164664
-0.31482568 0.2745913 1.1040001 4285296251
-0.31272635 0.2745913 1.1040001 4285362557
-0.31090841 0.27484 1.105 4285164924
-0.30880719 0.27484 1.105 4285099901
-0.30698353 0.27508873 1.1060001 4285231489
-0.30515605 0.27533743 1.107 4285099903
-0.30359855 0.27583489 1.1090001 4285099131
-0.30148971 0.27583489 1.1090001 4284836213
-0.29911092 0.27558616 1.108 4288914866
-0.29700401 0.27558616 1.108 4290559690
-0.29463091 0.27533743 1.107 4290559944
-0.29252589 0.27533743 1.107 4289967807
-0.29015854 0.27508873 1.1060001 4290296000
-0.28805542 0.27508873 1.1060001 4290296000
-0.2859523 0.27508873 1.1060001 4290296254
-0.28461909 0.27583489 1.1090001 4290296254
-0.282765 0.27608362 1.11 4290296254
-0.28065428 0.27608362 1.11 4290296254
-0.2787945 0.27633235 1.1110001 4290230461
-0.27643281 0.27608362 1.11 4290164668
-0.27432209 0.27608362 1.11 4289902010
-0.27172089 0.27558616 1.108 4289836217
-0.26961395 0.27558616 1.108 4290033082
-0.26726559 0.27533743 1.107 4290098875
-0.26540008 0.27558616 1.108 4290164414
-0.26329315 0.27558616 1.108 4290164414
-0.26118624 0.27558616 1.108 4290033598
-0.25907931 0.27558616 1.108 4290033598
-0.25697237 0.27558616 1.108 4289967805
-0.25463542 0.27533743 1.107 4289902012
-0.2525304 0.27533743 1.107 4289967805
-0.25042537 0.27533743 1.107 4289967805
-0.24832036 0.27533743 1.107 4289902014
-0.24621533 0.27533743 1.107 4289704635
-0.24388978 0.27508873 1.1060001 4289638842
-0.24156806 0.27484 1.105 4289573049
-0.23925011 0.2745913 1.1040001 4289441720
-0.23715079 0.2745913 1.1040001 4289244341
-0.23505147 0.2745913 1.1040001 4289046962
-0.23316316 0.27484 1.105 4288718769
-0.23106194 0.27484 1.105 4288389553
-0.22896072 0.27484 1.105 4288126640
-0.22665419 0.2745913 1.1040001 4287863726
-0.22455487 0.2745913 1.1040001 4285430155
-0.22225405 0.27434254 1.103 4283127912
-0.21995702 0.27409381 1.102 4281154372
-0.21766382 0.27384511 1.1010001 4281023291
-0.21557021 0.27384511 1.1010001 4280694577
-0.21328269 0.27359638 1.1 4280431654
-0.21119097 0.27359638 1.1 4280299807
-0.20890915 0.27334765 1.0990001 4280167704
-0.20663117 0.27309895 1.098 4280299031
-0.20472953 0.27334765 1.0990001 4280167445
-0.2030085 0.27384511 1.1010001 4279641099
-0.20109737 0.27409381 1.102 4279312133
-0.19936301 0.2745913 1.1040001 4279904013
-0.19762105 0.27508873 1.1060001 4280757269
-0.19551793 0.27508873 1.1060001 4281019671
-0.19358967 0.27533743 1.107 4281019155
-0.19165763 0.27558616 1.108 4280952849
-0.18972178 0.27583489 1.1090001 4280887058
-0.1879513 0.27633235 1.1110001 4280821523
-0.18600594 0.27658108 1.1120001 4280954138
-0.18405676 0.27682978 1.113 4280822811
-0.18177687 0.27658108 1.1120001 4280691997
-0.17966233 0.27658108 1.1120001 4280889121
-0.1775478 0.27658108 1.1120001 4281348904
-0.17543326 0.27658108 1.1120001 4281808944
-0.17300701 0.27608362 1.11 4282992707
-0.17074232 0.27583489 1.1090001 4284440154
-0.16863348 0.27583489 1.1090001 4285098345
-0.16667482 0.27608362 1.11 4286151292
-0.16471234 0.27633235 1.1110001 4286940551
-0.1625997 0.27633235 1.1110001 4287072137
-0.16063152 0.27658108 1.1120001 4287466641
-0.15851699 0.27658108 1.1120001 4287927192
-0.15654311 0.27682978 1.113 4288255900
-0.15442666 0.27682978 1.113 4288387486
-0.15231024 0.27682978 1.113 4288716196
-0.15032874 0.27707851 1.1140001 4288847782
-0.14821041 0.27707851 1.1140001 4288914088
-0.14609207 0.27707851 1.1140001 4289045674
-0.14397374 0.27707851 1.1140001 4288979883
-0.1418554 0.27707851 1.1140001 4288914090
-0.13973705 0.27707851 1.1140001 4288980140
-0.13761872 0.27707851 1.1140001 4289177773
-0.13537875 0.27682978 1.113 4289111979
-0.13326231 0.27682978 1.113 4289046186
-0.13114588 0.27682978 1.113 4288848805
-0.12902944 0.27682978 1.113 4288651426
-0.12679899 0.27658108 1.1120001 4288519581
-0.12468445 0.27658108 1.1120001 4288124821
-0.12256992 0.27658108 1.1120001 4287532938
-0.12045538 0.27658108 1.1120001 4287203972
-0.11834085 0.27658108 1.1120001 4286941311
-0.11622632 0.27658108 1.1120001 4286480758
-0.11390654 0.27608362 1.11 4285560424
-0.11179581 0.27608362 1.11 4284771676
-0.10968508 0.27608362 1.11 4283851342
-0.10757435 0.27608362 1.11 4282601786
-0.10536861 0.27583489 1.1090001 4281549096
-0.10325978 0.27583489 1.1090001 4281220130
-0.10124215 0.27608362 1.11 4281482527
-0.099131428 0.27608362 1.11 4281285146
-0.097108103 0.27633235 1.1110001 4281154330
-0.095166482 0.27682978 1.113 4281154587
-0.093133651 0.27707851 1.1140001 4281023003
-0.091015309 0.27707851 1.1140001 4280759831
-0.088817172 0.27682978 1.113 4280890906
-0.086700737 0.27682978 1.113 4281416223
-0.084508307 0.27658108 1.1120001 4281941284
-0.082467869 0.27682978 1.113 4282006564
-0.080279239 0.27658108 1.1120001 4281940773
-0.078164704 0.27658108 1.1120001 4281743392
-0.075981781 0.27633235 1.1110001 4281481246
-0.073869154 0.27633235 1.1110001 4281350941
-0.07188569 0.27682978 1.113 4281483043
-0.069831938 0.27707851 1.1140001 4281747239
-0.067774385 0.27732721 1.115 4281747239
-0.065713033 0.27757597 1.1160001 4281484835
-0.063590892 0.27757597 1.1160001 4281419042
-0.061468754 0.27757597 1.1160001 4281090588
-0.059293434 0.27732721 1.115 4280630036
-0.057070643 0.27682978 1.113 4280498704
-0.055003583 0.27707851 1.1140001 4280498702
-0.052885246 0.27707851 1.1140001 4280301323
-0.050858054 0.27757597 1.1160001 4280761874
-0.048779581 0.2778247 1.1170001 4281156634
-0.046697307 0.2780734 1.118 4282077225
-0.044531498 0.2778247 1.1170001 4282207790
-0.042331524 0.27732721 1.115 4282141746
-0.040211286 0.27732721 1.115 4283127876
-0.038056884 0.27707851 1.1140001 4284180313
-0.035906289 0.27682978 1.113 4285232492
-0.033789854 0.27682978 1.113 4286218107
-0.031673416 0.27682978 1.113 4286743681
-0.029530426 0.27658108 1.1120001 4287204234
-0.027415892 0.27658108 1.1120001 4287335566
-0.025301358 0.27658108 1.1120001 4287467154
-0.023186823 0.27658108 1.1120001 4287664533
-0.021072291 0.27658108 1.1120001 4287927706
-0.018974805 0.27682978 1.113 4288059292
-0.016858371 0.27682978 1.113 4288190878
-0.014741934 0.27682978 1.113 4288454050
-0.012648186 0.27732721 1.115 4288650915
-0.01053739 0.27757597 1.1160001 4288716962
-0.0084227892 0.2778247 1.1170001 4288980134
-0.0062987478 0.2778247 1.1170001 4289045925
-0.0041747061 0.2778247 1.1170001 4289309095
-0.0020525006 0.2780734 1.118 4289966766
7.3508309e-05 0.27832213 1.1190001 4279439369
0.0022092222 0.27931702 1.123 4279636489
0.015021928 0.27931702 1.123 4289637803
0.01715738 0.27931702 1.123 4289176998
0.019172572 0.27757597 1.1160001 4288979880
0.021256551 0.27707851 1.1140001 4288914088
0.023353903 0.27682978 1.113 4289045674
0.025470339 0.27682978 1.113 4289177260
0.027561989 0.27658108 1.1120001 4289046187
0.029676523 0.27658108 1.1120001 4288848807
0.031733878 0.27608362 1.11 4288717219
0.033753138 0.27533743 1.107 4288585885
0.03582577 0.27508873 1.1060001 4288191127
0.037894603 0.27484 1.105 4287598990
0.039959628 0.2745913 1.1040001 4287138437
0.042058952 0.2745913 1.1040001 4286875008
0.044078276 0.27409381 1.102 4286611835
0.046173796 0.27409381 1.102 4286282611
0.048313111 0.27434254 1.103 4286085230
0.050410531 0.27434254 1.103 4279703562
0.052650765 0.27508873 1.1060001 4280098318
0.063166387 0.27508873 1.1060001 4281808685
0.065269515 0.27508873 1.1060001 4282730300
0.067372635 0.27508873 1.1060001 4282664253
0.069161676 0.27384511 1.1010001 4282598460
0.071190573 0.27359638 1.1 4282861121
0.073282287 0.27359638 1.1 4282861122
0.075374007 0.27359638 1.1 4283255112
0.077536143 0.27384511 1.1010001 4283584077
0.079557434 0.27359638 1.1 4283978583
0.081649154 0.27359638 1.1 4285097064
0.083740868 0.27359638 1.1 4286609792
0.085754551 0.27334765 1.0990001 4287531407
0.087924294 0.27359638 1.1 4287860372
0.090097845 0.27384511 1.1010001 4287532177
0.092191465 0.27384511 1.1010001 4287729814
0.094370715 0.27409381 1.102 4287861913
0.096553773 0.27434254 1.103 4287927706
0.098651193 0.27434254 1.103 4288125085
0.10074861 0.27434254 1.103 4288322210
0.10293928 0.2745913 1.1040001 4288519589
0.1050386 0.2745913 1.1040001 4288651175
0.10723495 0.27484 1.105 4288782761
0.10933618 0.27484 1.105 4288782761
0.1114374 0.27484 1.105 4288848554
0.11353862 0.27484 1.105 4288980140
0.11553521 0.2745913 1.1040001 4289045933
0.11752797 0.27434254 1.103 4288980140
0.11962539 0.27434254 1.103 4289045933
0.12183317 0.2745913 1.1040001 4289177773
0.12393249 0.2745913 1.1040001 4289309359
0.12603182 0.2745913 1.1040001 4289375152
0.12813114 0.2745913 1.1040001 4289375152
0.13023046 0.2745913 1.1040001 4289375152
0.13232978 0.2745913 1.1040001 4289375152
0.13455085 0.27484 1.105 4289309873
0.13665208 0.27484 1.105 4289309873
0.13875329 0.27484 1.105 4289309873
0.14110947 0.27533743 1.107 4289309873
0.14308512 0.27508873 1.1060001 4289309873
0.14518826 0.27508873 1.1060001 4289309873
0.14715819 0.27484 1.105 4289309875
0.1493945 0.27508873 1.1060001 4289309875
0.15149763 0.27508873 1.1060001 4289375668
0.15360075 0.27508873 1.1060001 4289441461
0.15556309 0.27484 1.105 4289507254
0.15766431 0.27484 1.105 4289441461
0.15962096 0.2745913 1.1040001 4289441461
0.16172028 0.2745913 1.1040001 4289507254
0.16396798 0.27484 1.105 4289573047
0.16606919 0.27484 1.105 4289441461
0.16817042 0.27484 1.105 4289310388
0.17027165 0.27484 1.105 4289376181
0.17237286 0.27484 1.105 4289376181
0.174632 0.27508873 1.1060001 4289441974
0.17673512 0.27508873 1.1060001 4289441974
0.17883824 0.27508873 1.1060001 4289507767
0.18094137 0.27508873 1.1060001 4289507765
0.18287899 0.27484 1.105 4289573558
0.18498021 0.27484 1.105 4289507764
0.18725075 0.27508873 1.1060001 4289573557
0.18935387 0.27508873 1.1060001 4289244846
0.1918032 0.27558616 1.108 4288784295
0.19391012 0.27558616 1.108 4288784293
-0.36118716 0.27844498 1.1110001 4285955463
-0.35778171 0.27744249 1.107 4285955208
-0.35471278 0.2766906 1.1040001 4285955208
-0.35293287 0.27694124 1.105 4285889415
-0.35114914 0.27719185 1.1060001 4285823622
-0.34904602 0.27719185 1.1060001 4285428864
-0.3469429 0.27719185 1.1060001 4284902005
-0.3442162 0.2766906 1.1040001 4286415242
-0.34211686 0.2766906 1.1040001 4288126114
-0.33970955 0.27643996 1.103 4289770939
-0.33730605 0.27618933 1.102 4290296770
-0.33521056 0.27618933 1.102 4290361793
-0.33371958 0.2766906 1.1040001 4290559172
-0.33192065 0.27694124 1.105 4290295741
-0.33011791 0.27719185 1.1060001 4290098875
-0.3277182 0.27694124 1.105 4290558913
-0.32561699 0.27694124 1.105 4290493633
-0.32322297 0.2766906 1.1040001 4290229950
-0.32083276 0.27643996 1.103 4290164414
-0.3184464 0.27618933 1.102 4290361795
-0.31635088 0.27618933 1.102 4289836221
-0.31454051 0.27643996 1.103 4289309623
-0.31244308 0.27643996 1.103 4289112757
-0.31034568 0.27643996 1.103 4288389035
-0.30824825 0.27643996 1.103 4285889415
-0.30615082 0.27643996 1.103 4284573557
-0.30432907 0.2766906 1.1040001 4285428866
-0.30277729 0.27719185 1.1060001 4285099385
-0.30067417 0.27719185 1.1060001 4285296764
-0.29857105 0.27719185 1.1060001 4289967553
-0.2964679 0.27719185 1.1060001 4290428104
-0.29436478 0.27719185 1.1060001 4290559174
-0.29226166 0.27719185 1.1060001 4290098623
-0.28989619 0.27694124 1.105 4290361793
-0.28753451 0.2766906 1.1040001 4290427586
-0.2859523 0.27719185 1.1060001 4290361534
-0.28384918 0.27719185 1.1060001 4290361534
-0.28200075 0.27744249 1.107 4290362047
-0.27989572 0.27744249 1.107 4290362047
-0.27804166 0.27769309 1.108 4290296254
-0.27568567 0.27744249 1.107 4290230461
-0.27358067 0.27744249 1.107 4290164414
-0.27123043 0.27719185 1.1060001 4290098621
-0.26888394 0.27694124 1.105 4290098875
-0.26702416 0.27719185 1.1060001 4290098875
-0.26492104 0.27719185 1.1060001 4290164668
-0.26305553 0.27744249 1.107 4290164668
-0.2607148 0.27719185 1.1060001 4290164668
-0.25861168 0.27719185 1.1060001 4290164668
-0.25627661 0.27694124 1.105 4290098621
-0.25394535 0.2766906 1.1040001 4290098621
-0.25184605 0.2766906 1.1040001 4289902012
-0.24974672 0.2766906 1.1040001 4289967805
-0.24787173 0.27694124 1.105 4289967805
-0.2457705 0.27694124 1.105 4289836219
-0.24344875 0.2766906 1.1040001 4289770426
-0.24113083 0.27643996 1.103 4289770426
-0.23881669 0.27618933 1.102 4289704635
-0.23672117 0.27618933 1.102 4289573049
-0.23462565 0.27618933 1.102 4289441463
-0.23274115 0.27643996 1.103 4288981169
-0.23064373 0.27643996 1.103 4288454574
-0.22854631 0.27643996 1.103 4288257967
-0.22644889 0.27643996 1.103 4288389813
-0.22414806 0.27618933 1.102 4287205796
-0.22205254 0.27618933 1.102 4285298054
-0.21995702 0.27618933 1.102 4282009170
-0.2178615 0.27618933 1.102 4281417538
-0.215766 0.27618933 1.102 4281023031
-0.21367048 0.27618933 1.102 4280891694
-0.21119097 0.27568811 1.1 4280891176
-0.20890915 0.27543747 1.0990001 4280825123
-0.20663117 0.27518687 1.098 4281219620
-0.20454326 0.27518687 1.098 4281088034
-0.20263971 0.27543747 1.0990001 4280364309
-0.20091489 0.27593872 1.1010001 4280232978
-0.19936301 0.2766906 1.1040001 4280692757
-0.19779973 0.27744249 1.107 4281021465
-0.19587149 0.27769309 1.108 4281085975
-0.19393943 0.2779437 1.1090001 4280888085
-0.19183061 0.2779437 1.1090001 4280953108
-0.18972178 0.2779437 1.1090001 4281085465
-0.18761295 0.2779437 1.1090001 4281283101
-0.18567139 0.27819437 1.11 4281020190
-0.18356067 0.27819437 1.11 4281020962
-0.18128645 0.2779437 1.1090001 4281283879
-0.17901607 0.27769309 1.108 4281941811
-0.17690915 0.27769309 1.108 4282993733
-0.17495997 0.2779437 1.1090001 4283716944
-0.17269529 0.27769309 1.108 4284571740
-0.17043439 0.27744249 1.107 4285492844
-0.16832937 0.27744249 1.107 4285887861
-0.16622435 0.27744249 1.107 4286480257
-0.16426757 0.27769309 1.108 4287006344
-0.16230699 0.2779437 1.1090001 4287203723
-0.16019817 0.2779437 1.1090001 4287663761
-0.1582319 0.27819437 1.11 4287992726
-0.1562618 0.27844498 1.1110001 4288255898
-0.15414917 0.27844498 1.1110001 4288584863
-0.1521734 0.27869561 1.1120001 4288782244
-0.14992391 0.27844498 1.1110001 4288782244
-0.14781128 0.27844498 1.1110001 4288979623
-0.14569864 0.27844498 1.1110001 4289177002
-0.14358601 0.27844498 1.1110001 4289111467
-0.14172806 0.27894622 1.113 4288914088
-0.13948619 0.27869561 1.1120001 4288848808
-0.13724811 0.27844498 1.1110001 4288980394
-0.13513549 0.27844498 1.1110001 4288849577
-0.13302284 0.27844498 1.1110001 4288981163
-0.13091022 0.27844498 1.1110001 4289046186
-0.12879759 0.27844498 1.1110001 4288980391
-0.12668495 0.27844498 1.1110001 4289111720
-0.12457233 0.27844498 1.1110001 4288914339
-0.12245969 0.27844498 1.1110001 4288651167
-0.12034706 0.27844498 1.1110001 4288651165
-0.118128 0.27819437 1.11 4287861903
-0.11580823 0.27769309 1.108 4287204485
-0.11359869 0.27744249 1.107 4286414967
-0.11139295 0.27719185 1.1060001 4285626219
-0.10919101 0.27694124 1.105 4284705117
-0.10708979 0.27694124 1.105 4283455561
-0.10489354 0.2766906 1.1040001 4282600252
-0.10288734 0.27694124 1.105 4282205747
-0.10087732 0.27719185 1.1060001 4281875751
-0.098863505 0.27744249 1.107 4281678371
-0.096845888 0.27769309 1.108 4281350176
-0.094824463 0.2779437 1.1090001 4281087517
-0.092715628 0.2779437 1.1090001 4280890653
-0.090525106 0.27769309 1.108 4280824860
-0.088418171 0.27769309 1.108 4281153057
-0.086311243 0.27769309 1.108 4281481765
-0.084280312 0.2779437 1.1090001 4281349409
-0.082171485 0.2779437 1.1090001 4281480482
-0.080062658 0.2779437 1.1090001 4281480484
-0.07795383 0.2779437 1.1090001 4281612068
-0.075844996 0.2779437 1.1090001 4281678374
-0.073736168 0.2779437 1.1090001 4281350177
-0.07188569 0.27894622 1.113 4281153057
-0.069831938 0.27919686 1.1140001 4281153825
-0.067774385 0.27944747 1.115 4282206768
-0.065713033 0.2796981 1.1160001 4282141486
-0.063590892 0.2796981 1.1160001 4282338865
-0.061468754 0.2796981 1.1160001 4282141997
-0.059293434 0.27944747 1.115 4281549858
-0.057070643 0.27894622 1.113 4281090075
-0.055003583 0.27919686 1.1140001 4281221916
-0.052885246 0.27919686 1.1140001 4281353500
-0.050858054 0.2796981 1.1160001 4281747488
-0.048779581 0.27994874 1.1170001 4281813283
-0.046572 0.27944747 1.115 4281813030
-0.04437203 0.27894622 1.113 4281614888
-0.042217631 0.27869561 1.1120001 4282272310
-0.040067032 0.27844498 1.1110001 4283653712
-0.037920237 0.27819437 1.11 4284771942
-0.035809506 0.27819437 1.11 4286020985
-0.033698775 0.27819437 1.11 4286809990
-0.031588044 0.27819437 1.11 4287007369
-0.029477313 0.27819437 1.11 4287270543
-0.027391236 0.27844498 1.1110001 4287336336
-0.025278604 0.27844498 1.1110001 4287664533
-0.023165973 0.27844498 1.1110001 4287927706
-0.02105334 0.27844498 1.1110001 4288256417
-0.018940708 0.27844498 1.1110001 4288388003
-0.016828075 0.27844498 1.1110001 4288585636
-0.014728689 0.27869561 1.1120001 4288783015
-0.012614155 0.27869561 1.1120001 4288848807
-0.010509063 0.27894622 1.113 4288914598
-0.0083926274 0.27894622 1.113 4289111720
-0.0062761921 0.27894622 1.113 4289177511
-0.0041709691 0.2796981 1.1160001 4289572267
-0.0020488289 0.2796981 1.1160001 4290229938
7.3574003e-05 0.28070059 1.12 4279307785
0.0022111894 0.28170311 1.1240001 4279373317
0.014981799 0.28070059 1.12 4290229940
0.017111545 0.28070059 1.12 4289242793
0.019138213 0.27919686 1.1140001 4288979880
0.021218387 0.27869561 1.1120001 4288979881
0.023311939 0.27844498 1.1110001 4289177519
0.025424572 0.27844498 1.1110001 4289309359
0.027537204 0.27844498 1.1110001 4289243566
0.029623147 0.27819437 1.11 4289111979
0.031705286 0.2779437 1.1090001 4288981161
0.033753138 0.27744249 1.107 4288652196
0.03582577 0.27719185 1.1060001 4288323229
0.037894603 0.27694124 1.105 4288191129
0.039959628 0.2766906 1.1040001 4288059543
0.042058952 0.2766906 1.1040001 4287927444
0.044078276 0.27618933 1.102 4287598477
0.046173796 0.27618933 1.102 4287664010
0.048313111 0.27643996 1.103 4287927436
0.050410531 0.27643996 1.103 4278979072
0.052650765 0.27719185 1.1060001 4279110656
0.063166387 0.27719185 1.1060001 4281940271
0.065269515 0.27719185 1.1060001 4284571993
0.067128979 0.27618933 1.102 4282993220
0.068973221 0.27518687 1.098 4282993220
0.071061134 0.27518687 1.098 4283387466
0.073215671 0.27543747 1.0990001 4283650638
0.075305484 0.27543747 1.0990001 4284505949
0.077395298 0.27543747 1.0990001 4285427051
0.079412781 0.27518687 1.098 4286084729
0.081426479 0.2749362 1.097 4287203210
0.083512485 0.2749362 1.097 4287399821
0.085598499 0.2749362 1.097 4287663508
0.087684505 0.2749362 1.097 4287860887
0.089852341 0.27518687 1.098 4287664021
0.092023991 0.27543747 1.0990001 4287795609
0.094199441 0.27568811 1.1 4287993245
0.096291155 0.27568811 1.1 4288190624
0.098472312 0.27593872 1.1010001 4288059808
0.10056593 0.27593872 1.1010001 4288322980
0.10275279 0.27618933 1.102 4288454566
0.10484831 0.27618933 1.102 4288651945
0.10704087 0.27643996 1.103 4288717738
0.1091383 0.27643996 1.103 4288783531
0.11113486 0.27618933 1.102 4288783531
0.11323038 0.27618933 1.102 4288915117
0.11522125 0.27593872 1.1010001 4288980910
0.11720831 0.27568811 1.1 4289046703
0.11930002 0.27568811 1.1 4289046703
0.12150209 0.27593872 1.1010001 4289112494
0.12370797 0.27618933 1.102 4289178287
0.12580349 0.27618933 1.102 4289244080
0.12789901 0.27618933 1.102 4289244080
0.12999453 0.27618933 1.102 4289244080
0.13209005 0.27618933 1.102 4289244080
0.13418557 0.27618933 1.102 4289309873
0.13640474 0.27643996 1.103 4289309873
0.13875329 0.27694124 1.105 4289244080
0.14085452 0.27694124 1.105 4289244080
0.14295575 0.27694124 1.105 4289244080
0.14505698 0.27694124 1.105 4289309873
0.14702502 0.2766906 1.1040001 4289375666
0.14912434 0.2766906 1.1040001 4289375666
0.15136065 0.27694124 1.105 4289309875
0.15332299 0.2766906 1.1040001 4289375668
0.15542232 0.2766906 1.1040001 4289375668
0.15737894 0.27643996 1.103 4289309875
0.15947635 0.27643996 1.103 4289309875
0.16157378 0.27643996 1.103 4289441461
0.1636712 0.27643996 1.103 4289441461
0.16591892 0.2766906 1.1040001 4289375668
0.16801824 0.2766906 1.1040001 4289376181
0.16996346 0.27643996 1.103 4289376181
0.17206088 0.27643996 1.103 4289376181
0.1741583 0.27643996 1.103 4289376181
0.17641552 0.2766906 1.1040001 4289441974
0.17851485 0.2766906 1.1040001 4289507767
0.18061417 0.2766906 1.1040001 4289507765
0.18271349 0.2766906 1.1040001 4289507765
0.1846454 0.27643996 1.103 4289573557
0.18691213 0.2766906 1.1040001 4289705143
