# .PCD v0.7 - Point Cloud Data file format
VERSION 0.7
FIELDS x y z intensity
SIZE 4 4 4 4
TYPE F F F F
COUNT 1 1 1 1
WIDTH 1077
HEIGHT 1
VIEWPOINT 0 0 0 1 0 0 0
POINTS 1077
DATA ascii
-0.1249793 0.19030297 1.1914001 0.061704494
-0.1177227 0.18983941 1.1913334 0.061704494
-0.10976248 0.18978629 1.1910001 0.061704494
-0.13425972 0.19371472 1.1873335 0.061704494
-0.12602916 0.19390622 1.1885002 0.061704494
-0.11781581 0.19400179 1.1877 0.061704494
-0.10947761 0.19381179 1.1879166 0.061704494
-0.14221361 0.19857648 1.1840001 0.061704494
-0.13379775 0.19755143 1.1832501 0.061704494
-0.12560782 0.20034564 1.1850001 0.061704494
-0.11847663 0.20042919 1.1849232 0.061704494
-0.109884 0.19987011 1.1850001 0.061704494
-0.10262196 0.19993849 1.1855556 0.061704494
-0.14171502 0.20227163 1.1812501 0.061704494
-0.13352455 0.20163818 1.1808333 0.061704494
-0.12728879 0.20333648 1.182 0.061704494
-0.1029624 0.20227407 1.178 0.061704494
-0.11670224 0.20391302 1.1810001 0.061704494
-0.10993335 0.20385547 1.1806668 0.061704494
-0.10175526 0.20321704 1.1726667 0.061704494
-0.14421751 0.2092312 1.1856667 0.061704494
-0.1401639 0.20934784 1.1799999 0.061704494
-0.13431257 0.20785448 1.177889 0.061704494
-0.1261564 0.20850119 1.1779287 0.061704494
-0.11761898 0.20915914 1.1789377 0.061704494
-0.11038505 0.20645694 1.1795 0.061704494
-0.10493643 0.2051114 1.1750001 0.061704494
-0.10952886 0.20910253 1.1723335 0.061704494
-0.10644108 0.20926273 1.1670001 0.061704494
-0.14462294 0.21433817 1.189 0.061704494
-0.13398273 0.21181442 1.1750001 0.061704494
-0.1283969 0.21181442 1.1750001 0.061704494
-0.12593347 0.21711461 1.1720769 0.061704494
-0.12403372 0.21423094 1.176 0.061704494
-0.11961256 0.21432202 1.1765001 0.061704494
-0.11126127 0.21332009 1.1710001 0.061704494
-0.12645958 0.23327865 1.1310002 0.23002772
-0.12976371 0.23435828 1.138 0.23002772
-0.11991417 0.23315951 1.120111 0.23002772
-0.12392935 0.23475014 1.1243334 0.23002772
-0.13227546 0.24256873 1.141 0.23002772
-0.12735514 0.24125031 1.131 0.23002772
-0.13550563 0.24448335 1.1500001 0.23002772
-0.12411306 0.24152225 1.126 0.23002772
-0.11810369 0.24141052 1.1226429 0.23002772
-0.1399015 0.24986152 1.1466 0.23002772
-0.13606474 0.2489723 1.1455001 0.23002772
-0.13231413 0.24915373 1.1413335 0.23002772
-0.12575415 0.24845232 1.1297143 0.23002772
-0.1290531 0.25079837 1.1365001 0.23002772
-0.12063999 0.24770407 1.1221429 0.23002772
-0.14221312 0.25414836 1.1467501 0.23002772
-0.13443464 0.25508854 1.1446002 0.23002772
-0.14964767 0.25739187 1.1370001 0.23002772
-0.14134876 0.25728801 1.1374615 0.23002772
-0.13428544 0.25876132 1.1378001 0.23002772
-0.12893026 0.25541282 1.1370001 0.23002772
-0.1278336 0.25839812 1.1324 0.23002772
-0.12394772 0.25723785 1.1245 0.23002772
-0.1420361 0.26010635 1.1323334 0.23002772
-0.13395806 0.26415923 1.1298463 0.23002772
-0.1263417 0.2640841 1.128889 0.23002772
-0.13405477 0.26813218 1.1247144 0.23002772
-0.12606734 0.2678881 1.1243335 0.23002772
-0.12984096 0.27005184 1.12 0.23002772
-0.12594318 0.27336812 1.1152632 0.23002772
-0.1422576 0.2158519 1.17875 0.17103699
-0.14143966 0.21795595 1.1720001 0.17103699
-0.13438262 0.21674246 1.171 0.17103699
-0.11837385 0.21671095 1.1721429 0.17103699
-0.11170099 0.21536313 1.164 0.17103699
-0.15079284 0.21940351 1.1702001 0.17103699
-0.15099587 0.21888939 1.177 0.17103699
-0.14914484 0.22112106 1.189 0.17103699
-0.11610169 0.21863583 1.1637502 0.17103699
-0.1308514 0.2192488 1.1670001 0.17103699
-0.12863228 0.2192488 1.1670001 0.17103699
-0.15812507 0.22466917 1.1651999 0.17103699
-0.14971443 0.22456712 1.1634706 0.17103699
-0.14201544 0.22462067 1.1647692 0.17103699
-0.13396078 0.22477369 1.1657335 0.17103699
-0.13540556 0.22165769 1.1680001 0.17103699
-0.12727001 0.2247889 1.1661428 0.17103699
-0.12398244 0.22277498 1.1692001 0.17103699
-0.11985841 0.22276822 1.1680001 0.17103699
-0.11673094 0.22215363 1.159 0.17103699
-0.1218704 0.2257126 1.166 0.17103699
-0.15746407 0.23163313 1.1614166 0.17103699
-0.14939918 0.23066646 1.1602501 0.17103699
-0.14218098 0.23238204 1.1616668 0.17103699
-0.13404246 0.23159938 1.1631818 0.17103699
-0.12819137 0.22955491 1.1630001 0.17103699
-0.12862819 0.23166889 1.1570001 0.17103699
-0.1585705 0.23477538 1.1587501 0.17103699
-0.14974615 0.23420747 1.1586667 0.17103699
-0.14538173 0.23537712 1.159 0.17103699
-0.13417152 0.23503864 1.1573334 0.17103699
-0.15848398 0.23910567 1.1545558 0.17103699
-0.14968798 0.239805 1.1545715 0.17103699
-0.14187041 0.23994322 1.1555334 0.17103699
-0.13577093 0.24052137 1.1543335 0.17103699
-0.15745175 0.24335416 1.1505716 0.17103699
-0.15225753 0.24294499 1.151 0.17103699
-0.16407649 0.24469595 1.151 0.17103699
-0.15022983 0.24946515 1.1553335 0.17103699
-0.1436267 0.24857242 1.1537499 0.17103699
-0.14000085 0.24469595 1.151 0.17103699
-0.16437618 0.25024173 1.1480001 0.17103699
-0.159307 0.24929434 1.1495 0.17103699
-0.15545666 0.25038505 1.1520001 0.17103699
-0.14991879 0.25322673 1.1600001 0.17103699
-0.15748334 0.25428125 1.1481668 0.17103699
-0.15034793 0.25502571 1.1548333 0.17103699
-0.15038507 0.25578323 1.1467501 0.17103699
-0.087578565 0.19705752 1.1670001 0.42649627
-0.095215261 0.19671525 1.1520001 0.42649627
-0.093652114 0.1985299 1.1530001 0.42649627
-0.088528529 0.19645911 1.1505001 0.42649627
-0.085431673 0.196886 1.153 0.42649627
-0.084066264 0.19857663 1.1543335 0.42649627
-0.081187256 0.19832568 1.1550001 0.42649627
-0.077370264 0.19981384 1.1636667 0.42649627
-0.069705464 0.20004278 1.165 0.42649627
-0.08686737 0.19963986 1.1478333 0.42649627
-0.094739556 0.20000701 1.1375 0.42649627
-0.092581004 0.20013636 1.1465001 0.42649627
-0.077887937 0.20077959 1.1452 0.42649627
-0.10028498 0.20136631 1.1350001 0.42649627
-0.085054547 0.20199092 1.1370001 0.42649627
-0.078474753 0.2027047 1.1395 0.42649627
-0.093518987 0.20289719 1.1315 0.42649627
-0.088258699 0.2031669 1.1330001 0.42649627
-0.08545123 0.20749463 1.1407144 0.42649627
-0.077780642 0.20849754 1.1401818 0.42649627
-0.10120775 0.20588595 1.1272501 0.42649627
-0.095364228 0.20825212 1.1297143 0.42649627
-0.092238985 0.20980406 1.1378335 0.42649627
-0.085928507 0.21130529 1.1450001 0.42649627
-0.086106613 0.21501696 1.147375 0.42649627
-0.080414049 0.2127523 1.1440001 0.42649627
-0.093938842 0.21697617 1.1384287 0.42649627
-0.091423966 0.21742 1.1456667 0.42649627
-0.080484338 0.21511556 1.1450001 0.42649627
-0.095624506 0.21714857 1.1284001 0.42649627
-0.093119115 0.22604634 1.13975 0.42649627
-0.091610163 0.22659416 1.148 0.42649627
-0.096018672 0.22380081 1.123 0.42649627
-0.09507481 0.22420812 1.1286666 0.42649627
-0.091933578 0.23229393 1.1385001 0.42649627
-0.0911275 0.23347482 1.1285 0.42649627
-0.10152738 0.18334815 1.2007501 0.063448012
-0.093965806 0.18306637 1.2004 0.063448012
-0.086397648 0.18500924 1.19675 0.063448012
-0.082068533 0.18209292 1.2 0.063448012
-0.078200087 0.18522504 1.1966667 0.063448012
-0.070703685 0.18571715 1.1968999 0.063448012
-0.067848623 0.1827772 1.2007501 0.063448012
-0.061575368 0.18336095 1.2008334 0.063448012
-0.054397658 0.18555821 1.1978333 0.063448012
-0.094038799 0.18701683 1.1974444 0.063448012
-0.10229091 0.18722253 1.1963333 0.063448012
-0.062535174 0.18738547 1.1973751 0.063448012
-0.10139695 0.1905915 1.1925001 0.063448012
-0.093737148 0.19212145 1.1927273 0.063448012
-0.086773545 0.19137579 1.1915001 0.063448012
-0.077635705 0.19091626 1.1920002 0.063448012
-0.070014 0.1931224 1.1925455 0.063448012
-0.062893406 0.19282046 1.1925385 0.063448012
-0.05433606 0.19113146 1.1923333 0.063448012
-0.10191514 0.19421001 1.1886251 0.063448012
-0.08508449 0.19474222 1.1890001 0.063448012
-0.078294024 0.19472419 1.188889 0.063448012
-0.094446108 0.1958309 1.1892002 0.063448012
-0.059510354 0.19566123 1.1900001 0.063448012
-0.072333202 0.19641551 1.1900001 0.063448012
-0.094221905 0.19852763 1.1864001 0.063448012
-0.085669689 0.19812186 1.1866667 0.063448012
-0.077670485 0.19898994 1.1851251 0.063448012
-0.06989307 0.19930483 1.1869999 0.063448012
-0.062019307 0.19938861 1.1875001 0.063448012
-0.09312164 0.19942153 1.181 0.063448012
-0.084172875 0.19950595 1.1815001 0.063448012
-0.077805333 0.21782508 1.1405454 0.43992674
-0.070327908 0.21726915 1.1391876 0.43992674
-0.082619846 0.22599769 1.1384001 0.43992674
-0.077510104 0.22475497 1.1365001 0.43992674
-0.070643768 0.22515258 1.1367857 0.43992674
-0.063594393 0.22186995 1.1350001 0.43992674
-0.060981162 0.22502865 1.1322858 0.43992674
-0.088726111 0.22811531 1.1483334 0.43992674
-0.066772915 0.2270654 1.1340001 0.43992674
-0.091450565 0.2305578 1.146 0.43992674
-0.088258728 0.23075899 1.1470001 0.43992674
-0.085389338 0.23179723 1.1398572 0.43992674
-0.078632943 0.22814359 1.1340001 0.43992674
-0.07773336 0.2331536 1.1317693 0.43992674
-0.070567511 0.23154409 1.1355716 0.43992674
-0.061882477 0.23168631 1.1313001 0.43992674
-0.054238953 0.23062737 1.1295716 0.43992674
-0.086448587 0.23335235 1.1305 0.43992674
-0.08193969 0.23266134 1.1350001 0.43992674
-0.069286481 0.23393317 1.1328 0.43992674
-0.054419167 0.23249209 1.1237501 0.43992674
-0.081289947 0.23509876 1.126 0.43992674
-0.069498874 0.23504657 1.1257501 0.43992674
-0.062838465 0.23469165 1.1215 0.43992674
-0.053996164 0.23280206 1.1150001 0.43992674
-0.070653185 0.23497711 1.1102501 0.43992674
-0.061489645 0.23520322 1.1163334 0.43992674
-0.053764485 0.23392151 1.1102501 0.43992674
-0.062057365 0.23544809 1.1075 0.43992674
-0.070063829 0.23615986 1.1010001 0.43992674
-0.061634764 0.23594534 1.1 0.43992674
-0.030207448 0.07470493 1.1797501 0.067738779
-0.022352042 0.074689172 1.1795001 0.067738779
-0.015159798 0.075277701 1.1782 0.067738779
-0.04491318 0.076033831 1.1830001 0.067738779
-0.054078456 0.08078593 1.1866668 0.067738779
-0.046225253 0.080863871 1.1878334 0.067738779
-0.038283259 0.080785297 1.1866667 0.067738779
-0.030377284 0.080761917 1.1863334 0.067738779
-0.022022583 0.080964401 1.186 0.067738779
-0.014568163 0.0806638 1.1849 0.067738779
-0.011160568 0.078217208 1.182 0.067738779
-0.0055534872 0.080648936 1.1846668 0.067738779
-0.046487857 0.088138111 1.1945834 0.067738779
-0.038064752 0.088322699 1.194 0.067738779
-0.030554403 0.088044196 1.1933001 0.067738779
-0.027076093 0.085535191 1.1900001 0.067738779
-0.021418955 0.085535191 1.1900001 0.067738779
-0.013044502 0.08642596 1.1898 0.067738779
-0.0055756713 0.08663021 1.1895001 0.067738779
-0.021099696 0.089559749 1.1933334 0.067738779
-0.013882457 0.091113731 1.1952858 0.067738779
-0.0056028832 0.091577649 1.1949999 0.067738779
-0.045615543 0.094358824 1.2015001 0.067738779
-0.037599795 0.094310105 1.200875 0.067738779
-0.029605724 0.094306789 1.2008334 0.067738779
-0.022378204 0.094700359 1.2010001 0.067738779
-0.020440962 0.093022034 1.199 0.067738779
-0.013616812 0.095407993 1.2003334 0.067738779
-0.0052585411 0.097282551 1.2046667 0.067738779
-0.0044793179 0.09524902 1.1983334 0.067738779
-0.045926224 0.098450102 1.2096667 0.067738779
-0.037846722 0.098375499 1.2087501 0.067738779
-0.029798536 0.098368727 1.2086668 0.067738779
-0.021787938 0.098517925 1.2105 0.067738779
-0.013715758 0.098395847 1.2090001 0.067738779
-0.0079604378 0.098314464 1.2080001 0.067738779
-0.0059956256 0.145843 1.2291334 0.06628418
0.0026268566 0.14579155 1.228 0.06628418
-0.021541644 0.1518902 1.2245715 0.06628418
-0.013564565 0.15262644 1.2251428 0.06628418
-0.0060671796 0.15323195 1.2263638 0.06628418
0.0012442259 0.15210995 1.2250001 0.06628418
-0.038743891 0.15417269 1.2215716 0.06628418
-0.029552657 0.15467335 1.2222501 0.06628418
-0.022702646 0.15483409 1.2226001 0.06628418
-0.015036104 0.15535003 1.223 0.06628418
-0.0022452667 0.15535003 1.223 0.06628418
-0.046234172 0.15931636 1.2177777 0.06628418
-0.038130403 0.16048622 1.217875 0.06628418
-0.0300503 0.16061199 1.2188334 0.06628418
-0.021934928 0.1594315 1.2186666 0.06628418
-0.013840946 0.15963553 1.2202222 0.06628418
-0.0057213507 0.1596162 1.2200834 0.06628418
-0.046075553 0.16339594 1.2136668 0.06628418
-0.02183577 0.16333985 1.21325 0.06628418
-0.013782552 0.16357546 1.215 0.06628418
-0.0056933849 0.16344082 1.214 0.06628418
-0.045949791 0.16869657 1.2103333 0.06628418
-0.038148127 0.16901925 1.211 0.06628418
-0.034604561 0.16602238 1.2160001 0.06628418
-0.029854799 0.16877715 1.2109166 0.06628418
-0.021806877 0.16887841 1.2116251 0.06628418
-0.013742696 0.16884732 1.2114167 0.06628418
-0.0060019628 0.16817732 1.210143 0.06628418
-0.0033634841 0.17167917 1.207 0.06628418
-0.045767874 0.1771943 1.2055001 0.06628418
-0.037712231 0.17703795 1.2044375 0.06628418
-0.029669261 0.17688751 1.2034167 0.06628418
-0.021935258 0.17776534 1.204 0.06628418
-0.02060513 0.1742146 1.2086668 0.06628418
-0.01600023 0.1741185 1.2080001 0.06628418
-0.013457542 0.17739286 1.2047273 0.06628418
-0.0056436956 0.17687221 1.2033126 0.06628418
-0.013615862 0.18328445 1.2003332 0.06628418
-0.0082924245 0.18295471 1.2006668 0.06628418
0.025351534 0.074735455 1.1777143 0.067872018
0.033639181 0.075626768 1.1766667 0.067872018
0.0015803818 0.081410766 1.1848334 0.067872018
0.0038224291 0.078944378 1.1816667 0.067872018
0.0094418637 0.078955404 1.1818334 0.067872018
0.01805879 0.078217208 1.182 0.067872018
0.022554077 0.078217208 1.182 0.067872018
0.026292898 0.080857798 1.1847273 0.067872018
0.034323715 0.078711994 1.181 0.067872018
0.041988172 0.079787493 1.1786001 0.067872018
0.010966795 0.082160927 1.1848334 0.067872018
0.018096985 0.081762679 1.1845001 0.067872018
0.033426631 0.082022622 1.1850001 0.067872018
0.039444741 0.082782492 1.1830001 0.067872018
0.049596261 0.08282914 1.1836667 0.067872018
0.0029067416 0.086100906 1.1900001 0.067872018
0.010259587 0.086657643 1.1898751 0.067872018
0.018173376 0.08663068 1.1895 0.067872018
0.023833383 0.086648658 1.1897501 0.067872018
0.026942709 0.089983374 1.1939168 0.067872018
0.03360879 0.09005589 1.1932223 0.067872018
0.03551941 0.086265527 1.1896667 0.067872018
0.041882657 0.086548626 1.188375 0.067872018
0.0020657941 0.09064132 1.1938751 0.067872018
0.010306291 0.091596812 1.19525 0.067872018
0.018247221 0.09152633 1.1943334 0.067872018
0.042104363 0.0915488 1.1946251 0.067872018
0.0023547767 0.095116548 1.1966667 0.067872018
0.010325692 0.095182784 1.1975 0.067872018
0.018278413 0.095090054 1.1963334 0.067872018
0.02626694 0.095182784 1.1975 0.067872018
0.034221128 0.095143043 1.197 0.067872018
0.042232484 0.095242396 1.1982499 0.067872018
0.0023737934 0.098178826 1.2063334 0.067872018
0.010407608 0.098233074 1.207 0.067872018
0.01041623 0.098314464 1.2080001 0.067872018
0.01798171 0.099151149 1.207 0.067872018
0.026467687 0.098212726 1.20675 0.067872018
0.034449838 0.098070301 1.205 0.067872018
0.042496815 0.098131344 1.2057501 0.067872018
0.010545571 0.14837319 1.223 0.066202566
0.0033342359 0.15385304 1.2222002 0.066202566
0.010203371 0.15331258 1.2202728 0.066202566
0.017977899 0.15349111 1.220143 0.066202566
0.025597163 0.15379427 1.2199167 0.066202566
0.033476401 0.15310992 1.2208461 0.066202566
0.041887496 0.15282892 1.2214445 0.066202566
0.0023956883 0.15934439 1.2179999 0.066202566
0.0090474617 0.15892583 1.217 0.066202566
0.034561612 0.15907335 1.217889 0.066202566
0.041484807 0.15907183 1.2181251 0.066202566
0.011616481 0.16206343 1.2135715 0.066202566
0.018522017 0.16090815 1.2123333 0.066202566
0.025443284 0.16093764 1.2125555 0.066202566
0.032756712 0.16253637 1.2130002 0.066202566
0.042193074 0.1627959 1.2135 0.066202566
0.00238822 0.16339594 1.2136668 0.066202566
0.0023824766 0.16874351 1.2106667 0.066202566
0.0096676443 0.16793071 1.2103333 0.066202566
0.019045809 0.16736424 1.2090001 0.066202566
0.025374152 0.16802834 1.2092729 0.066202566
0.034227517 0.16833213 1.2096155 0.066202566
0.041186888 0.16725178 1.2105714 0.066202566
0.012692265 0.17039029 1.2060001 0.066202566
0.017286465 0.17046094 1.2065001 0.066202566
0.028769065 0.17053157 1.207 0.066202566
0.043031983 0.17036761 1.2069999 0.066202566
0.0023685477 0.17692433 1.2036668 0.066202566
0.010368216 0.17676187 1.2025626 0.066202566
0.018380424 0.17682713 1.2030001 0.066202566
0.026056351 0.17631528 1.2028571 0.066202566
0.034400288 0.17686188 1.2032501 0.066202566
0.042181857 0.1766462 1.2033335 0.066202566
0.028578382 0.17966118 1.199 0.066202566
0.003501636 0.18209292 1.2 0.066202566
0.018333798 0.18209292 1.2 0.066202566
-0.045746468 0.10221323 1.2202501 0.067906111
-0.038209632 0.1028048 1.2203751 0.067906111
-0.030094704 0.10282934 1.2206668 0.067906111
-0.021975975 0.10169429 1.2210001 0.067906111
-0.013384366 0.1026075 1.2208 0.067906111
-0.0057210303 0.10278375 1.2201251 0.067906111
-0.051124781 0.10427167 1.2240001 0.067906111
-0.047633518 0.10427167 1.2240001 0.067906111
-0.022061711 0.10442076 1.2257501 0.067906111
-0.016238643 0.10444205 1.2260001 0.067906111
-0.045650061 0.10740478 1.2332501 0.067906111
-0.03742221 0.10735398 1.2326667 0.067906111
-0.030399097 0.10738301 1.233 0.067906111
-0.022205703 0.10744832 1.2337501 0.067906111
-0.013991152 0.10741204 1.2333333 0.067906111
-0.0057791658 0.10733946 1.2325001 0.067906111
-0.045843668 0.1102171 1.2385 0.067906111
-0.03759994 0.11139511 1.2385001 0.067906111
-0.030207196 0.11193176 1.2388573 0.067906111
-0.02307678 0.11100244 1.2385001 0.067906111
-0.0140548 0.1102616 1.2390001 0.067906111
-0.0051007643 0.11069721 1.2386 0.067906111
-0.045940716 0.11399142 1.241125 0.067906111
-0.021532932 0.11428049 1.2399999 0.067906111
-0.014071816 0.1139339 1.2405001 0.067906111
-0.0063210647 0.1140957 1.2404287 0.067906111
-0.037645478 0.11506648 1.24 0.067906111
-0.031750645 0.11506648 1.24 0.067906111
-0.046038944 0.12133376 1.2438126 0.067906111
-0.037700031 0.12113306 1.2417501 0.067906111
-0.030547021 0.11850774 1.2390002 0.067906111
-0.022337146 0.12106586 1.2410626 0.067906111
-0.014084104 0.121116 1.2415836 0.067906111
-0.0062698666 0.12091523 1.2404615 0.067906111
-0.0038453287 0.12125645 1.2390001 0.067906111
-0.030571679 0.12331927 1.2399999 0.067906111
-0.04547032 0.12886643 1.2412001 0.067759037
-0.037659395 0.12926 1.2404444 0.067759037
-0.030576948 0.12923728 1.2402222 0.067759037
-0.022341171 0.12934358 1.2412502 0.067759037
-0.01407434 0.12810399 1.2406667 0.067759037
-0.0067234589 0.12934811 1.2387779 0.067759037
-0.0030624543 0.12842815 1.24 0.067759037
-0.048217259 0.13146596 1.2390001 0.067759037
-0.014051653 0.13143058 1.2386667 0.067759037
-0.045707833 0.13689494 1.2348751 0.067759037
-0.037531313 0.13704653 1.23625 0.067759037
-0.030473692 0.13701904 1.2359999 0.067759037
-0.022234954 0.13694374 1.2353125 0.067759037
-0.014017935 0.13699408 1.2357498 0.067759037
-0.0057921694 0.13695073 1.235375 0.067759037
-0.047944851 0.14243686 1.2320001 0.067759037
-0.045665424 0.14572696 1.2285 0.067759037
-0.037967179 0.14588335 1.2286427 0.067759037
-0.030296525 0.14557199 1.2288333 0.067759037
-0.022347549 0.14577819 1.2285999 0.067759037
-0.018660836 0.14243686 1.2320001 0.067759037
-0.015146756 0.14243686 1.2320001 0.067759037
-0.013701801 0.14623466 1.2285001 0.067759037
-0.0022617895 0.14243686 1.2320001 0.067759037
8.0997095e-05 0.14255248 1.233 0.067759037
-0.048797272 0.15082201 1.2240001 0.067759037
-0.046090085 0.15314116 1.2216251 0.067759037
-0.037642684 0.15136145 1.2246001 0.067759037
-0.03066281 0.15185161 1.2248 0.067759037
0.002398723 0.10270283 1.2191668 0.082391389
0.010025054 0.10264339 1.2204287 0.082391389
0.019245123 0.10350097 1.22175 0.082391389
0.025590807 0.10274478 1.2196668 0.082391389
0.033179395 0.10280605 1.2184287 0.082391389
0.037046127 0.10119457 1.215 0.082391389
0.039356519 0.10119457 1.215 0.082391389
0.042239495 0.10285266 1.2182001 0.082391389
0.01759685 0.10574025 1.2275001 0.082391389
0.049884718 0.10378183 1.21825 0.082391389
0.0012512754 0.10720883 1.2310001 0.082391389
0.0047663734 0.10729592 1.2320001 0.082391389
0.0094594881 0.10738301 1.233 0.082391389
0.016488262 0.10735398 1.2326667 0.082391389
0.025793007 0.10706367 1.2293334 0.082391389
0.033975095 0.10705642 1.2292501 0.082391389
0.042147029 0.10703465 1.2290001 0.082391389
0.050315633 0.10701287 1.2287501 0.082391389
0.0024354558 0.11135062 1.2380003 0.082391389
0.0095010372 0.11020226 1.2383333 0.082391389
0.018913554 0.11151863 1.238 0.082391389
0.025946453 0.11239776 1.2365556 0.082391389
0.034159828 0.11234733 1.2360001 0.082391389
0.042391948 0.11235738 1.2361112 0.082391389
0.049463883 0.11240745 1.2366667 0.082391389
0.0095186224 0.11394937 1.2406667 0.082391389
0.016122669 0.11417898 1.2406 0.082391389
0.0024406801 0.1150974 1.2403334 0.082391389
0.0026570985 0.12116563 1.2410001 0.082391389
0.0095275836 0.12115595 1.2420002 0.082391389
0.017452063 0.12004924 1.2405454 0.082391389
8.1391241e-05 0.11968575 1.2390001 0.082391389
0.018455386 0.12296413 1.2388 0.067782111
0.025408735 0.12263081 1.2390001 0.067782111
0.026326818 0.12013819 1.240625 0.067782111
0.033099607 0.12082077 1.2402856 0.067782111
0.035156701 0.12098414 1.2388891 0.067782111
0.040919278 0.11968576 1.2390001 0.067782111
0.043063693 0.12139789 1.2404444 0.067782111
0.048728358 0.12158751 1.2403749 0.067782111
0.051314611 0.11966208 1.2387501 0.067782111
0.0027302303 0.12905711 1.2385001 0.067782111
0.0094963526 0.12898088 1.2377778 0.067782111
0.017731735 0.12897082 1.2376667 0.067782111
0.025948362 0.1288657 1.2366667 0.067782111
0.0341773 0.12885728 1.2365834 0.067782111
0.042429421 0.12892383 1.2372223 0.067782111
0.049481664 0.12891203 1.2371111 0.067782111
8.1456928e-05 0.12921412 1.24 0.067782111
0.0024300625 0.1369655 1.2355 0.067782111
0.0094705196 0.13685481 1.2345001 0.067782111
0.017683219 0.13682613 1.2342501 0.067782111
0.025653979 0.1360741 1.2338001 0.067782111
0.034098987 0.1355996 1.2337501 0.067782111
0.042325694 0.13565102 1.2342223 0.067782111
0.049614958 0.13494523 1.2331252 0.067782111
0.050851047 0.1388153 1.2295715 0.067782111
0.027000289 0.13998042 1.2310001 0.067782111
0.034001306 0.13989514 1.23025 0.067782111
0.042169258 0.1398288 1.2296667 0.067782111
0.0091849286 0.14472535 1.2276001 0.067782111
0.017343326 0.14509748 1.2268002 0.067782111
0.025745526 0.14418904 1.2270001 0.067782111
0.033980526 0.14445749 1.2262309 0.067782111
0.042059179 0.14412481 1.2264446 0.067782111
0.050231513 0.14415076 1.2266668 0.067782111
0.021010803 0.14837319 1.223 0.067782111
0.025662018 0.14837319 1.223 0.067782111
0.033405777 0.14833274 1.2226667 0.067782111
0.041941267 0.14837319 1.223 0.067782111
-0.061986517 0.20015724 1.1656667 0.45015407
-0.070670411 0.20091927 1.1447501 0.45015407
-0.062684819 0.20126753 1.1446667 0.45015407
-0.060479082 0.20214383 1.1580001 0.45015407
-0.057225451 0.2023184 1.159 0.45015407
-0.05280133 0.20181486 1.14675 0.45015407
-0.054322951 0.20291241 1.1352001 0.45015407
-0.047992136 0.20275766 1.149 0.45015407
-0.045926847 0.20328707 1.1520001 0.45015407
-0.070254415 0.20298053 1.138 0.45015407
-0.06092881 0.2033416 1.1376001 0.45015407
-0.051678341 0.20334525 1.1340001 0.45015407
-0.047167581 0.20370026 1.1380001 0.45015407
-0.040239677 0.20440745 1.146 0.45015407
-0.07041575 0.20887512 1.140625 0.45015407
-0.061742231 0.20833987 1.1406666 0.45015407
-0.046089619 0.20861851 1.1367143 0.45015407
-0.038911898 0.20784785 1.1390001 0.45015407
-0.054308157 0.20979065 1.1382501 0.45015407
-0.051678341 0.20657982 1.1340001 0.45015407
-0.039783206 0.21070659 1.133 0.45015407
-0.063010983 0.2127523 1.1440001 0.45015407
-0.061676621 0.21731648 1.1394376 0.45015407
-0.054217838 0.21630006 1.1375 0.45015407
-0.046671566 0.21542248 1.1361818 0.45015407
-0.038507033 0.21683422 1.1335001 0.45015407
-0.034650031 0.21876605 1.1413335 0.45015407
-0.045632914 0.2190481 1.1338 0.45015407
-0.052756526 0.21951808 1.1340001 0.45015407
-0.032612521 0.22184102 1.146 0.45015407
-0.05374435 0.22452724 1.1320834 0.45015407
-0.046143021 0.22420003 1.1304375 0.45015407
-0.050896883 0.18290412 1.2003334 0.066930033
-0.0461675 0.18281513 1.201 0.066930033
-0.037603352 0.18224466 1.2010001 0.066930033
-0.029585496 0.18209292 1.2 0.066930033
-0.020914385 0.1825493 1.2 0.066930033
-0.0049991161 0.18566181 1.197 0.066930033
-0.045701187 0.18671143 1.1971111 0.066930033
-0.037805405 0.18606569 1.1975454 0.066930033
-0.029942861 0.18627481 1.1961 0.066930033
-0.021866705 0.18649489 1.1976365 0.066930033
-0.013578366 0.18732715 1.1970001 0.066930033
-0.046417858 0.19119848 1.1927501 0.066930033
-0.038479563 0.19233644 1.1927779 0.066930033
-0.030627549 0.19202004 1.192091 0.066930033
-0.021702202 0.19331032 1.1932 0.066930033
-0.013854375 0.19167796 1.1927143 0.066930033
-0.0048318612 0.19064744 1.1916667 0.066930033
-0.0060197092 0.19422731 1.1877 0.066930033
-0.054169912 0.19506498 1.1886667 0.066930033
-0.046280704 0.1951603 1.1892501 0.066930033
-0.030239161 0.19592993 1.1898 0.066930033
-0.013023334 0.19514839 1.1878 0.066930033
-0.038390372 0.1964155 1.1900001 0.066930033
-0.018024672 0.19641551 1.1900001 0.066930033
-0.054049343 0.19913723 1.186 0.066930033
-0.04574718 0.19938168 1.1852224 0.066930033
-0.038279459 0.20035645 1.1865555 0.066930033
-0.030358607 0.20084593 1.185643 0.066930033
-0.021930659 0.20064729 1.1871668 0.066930033
-0.013896702 0.20035455 1.1852001 0.066930033
-0.0055517652 0.19998281 1.1843337 0.066930033
-0.056559313 0.20055792 1.1680001 0.066930033
-0.052703802 0.20108844 1.1646667 0.066930033
-0.045871366 0.20184356 1.17875 0.066930033
-0.046124786 0.20274262 1.1710001 0.066930033
-0.038066495 0.20374036 1.1800002 0.066930033
-0.030265534 0.20408569 1.182 0.066930033
-0.021266438 0.20399936 1.1815001 0.066930033
-0.014518328 0.20386985 1.1807501 0.066930033
-0.0055320845 0.20374036 1.1800001 0.066930033
-0.047510054 0.20319121 1.164 0.066930033
-0.043056622 0.20630686 1.1733335 0.066930033
-0.037504401 0.20812446 1.1780001 0.066930033
-0.029166367 0.20819506 1.1830001 0.066930033
-0.024667278 0.20650791 1.1830001 0.066930033
-0.021908334 0.20929456 1.1797001 0.066930033
-0.015156001 0.20766631 1.1780999 0.066930033
-0.0051481226 0.20731728 1.1776667 0.066930033
-0.032461639 0.21050102 1.1801667 0.066930033
-0.013328806 0.21069725 1.1750001 0.066930033
-0.0059874286 0.21053766 1.1750001 0.066930033
-0.028041594 0.21325655 1.1830001 0.066930033
-0.024127904 0.21559718 1.1786001 0.066930033
-0.035793561 0.21477744 1.179 0.066930033
-0.028844316 0.21746454 1.1789999 0.066930033
-0.032697894 0.2191444 1.149 0.50548178
-0.039127067 0.22529954 1.1296667 0.50548178
-0.035254348 0.22488266 1.1375 0.50548178
-0.032456003 0.2261939 1.1405001 0.50548178
-0.046032783 0.2301022 1.1277499 0.50548178
-0.037022747 0.23184185 1.131 0.50548178
-0.034548834 0.23327692 1.138 0.50548178
-0.032384861 0.23327692 1.138 0.50548178
-0.030499725 0.23433812 1.1485001 0.50548178
-0.038749993 0.23357487 1.1238333 0.50548178
-0.045817066 0.23223348 1.1225001 0.50548178
-0.030690044 0.24129038 1.1556667 0.50548178
-0.044851128 0.2330997 1.1144 0.50548178
-0.040247351 0.23407003 1.1160001 0.50548178
-0.034629792 0.24033074 1.1406667 0.50548178
-0.032460745 0.24033074 1.1406667 0.50548178
-0.04633468 0.23372836 1.1093334 0.50548178
-0.036519244 0.23850408 1.1320001 0.50548178
-0.040974338 0.2353418 1.1070001 0.50548178
-0.037672691 0.24132061 1.1152 0.50548178
-0.035473432 0.24201451 1.1216668 0.50548178
-0.031986453 0.24323063 1.1240001 0.50548178
-0.028322419 0.25121841 1.1487999 0.50548178
-0.03421488 0.24602288 1.1270001 0.50548178
-0.032071825 0.24602288 1.1270001 0.50548178
-0.034633473 0.24894273 1.12325 0.50548178
-0.031220352 0.24992755 1.1350001 0.50548178
-0.021161754 0.25223923 1.1396 0.50548178
-0.031972222 0.25060034 1.1235001 0.50548178
-0.028204838 0.25408474 1.1440001 0.50548178
-0.029154545 0.25829852 1.138625 0.50548178
-0.02261452 0.25777644 1.1363126 0.50548178
-0.014273613 0.2566554 1.1370001 0.50548178
-0.034634899 0.25695309 1.12325 0.50548178
-0.032223601 0.25795254 1.1323334 0.50548178
-0.035173457 0.26500112 1.1282858 0.50548178
-0.030220276 0.26427072 1.1299 0.50548178
-0.021378525 0.21772362 1.17225 0.23356268
-0.014405776 0.21679503 1.1717501 0.23356268
-0.0057224431 0.21726391 1.1730669 0.23356268
-0.03115035 0.21814422 1.173 0.23356268
7.7187011e-05 0.22075178 1.1750001 0.23356268
0.0034374394 0.22467595 1.1780001 0.23356268
-0.030911345 0.2208986 1.164 0.23356268
-0.027808033 0.22486842 1.1731668 0.23356268
-0.024396209 0.22537258 1.1700001 0.23356268
-0.020963058 0.22433782 1.164625 0.23356268
-0.014783686 0.22450399 1.1638572 0.23356268
-0.011028379 0.22276822 1.1680001 0.23356268
-0.005481448 0.2230064 1.1692501 0.23356268
7.7039207e-05 0.22589876 1.1727501 0.23356268
-0.030946754 0.22558481 1.1653333 0.23356268
-0.0054484308 0.22678149 1.1624 0.23356268
-0.027753038 0.23109883 1.1708335 0.23356268
0.0034155541 0.22992094 1.1705 0.23356268
-0.024364933 0.23175102 1.1685001 0.23356268
-0.022034952 0.23234108 1.1627144 0.23356268
-0.014273145 0.23023859 1.160875 0.23356268
-0.0054317634 0.22866669 1.1585001 0.23356268
0.0020708395 0.23379569 1.1643001 0.23356268
-0.0054223789 0.23379248 1.156625 0.23356268
-0.027632466 0.23563839 1.16575 0.23356268
-0.020284433 0.23507059 1.1575 0.23356268
-0.014227039 0.23500258 1.1571666 0.23356268
-0.027555669 0.24161243 1.1625001 0.23356268
-0.02419812 0.23899144 1.1605 0.23356268
-0.021891143 0.2411748 1.1551112 0.23356268
0.0029183587 0.24011815 1.1621429 0.23356268
-0.014613429 0.24027582 1.1529001 0.23356268
-0.0047458517 0.23898211 1.1530001 0.23356268
0.00051635306 0.24271937 1.1562001 0.23356268
-0.0056855362 0.24234037 1.1492728 0.23356268
-0.019614117 0.24349529 1.1505001 0.23356268
-0.013417876 0.24389552 1.1506667 0.23356268
-0.02874939 0.24828814 1.1550001 0.23356268
-0.028599313 0.24771219 1.1600001 0.23356268
-0.023332387 0.24679603 1.1540002 0.23356268
-0.021728909 0.24921454 1.146625 0.23356268
-0.014102835 0.2482046 1.1470002 0.23356268
-0.0055842237 0.24749117 1.1447001 0.23356268
-0.0056216018 0.25111279 1.141625 0.23356268
-0.01401992 0.25219408 1.140375 0.23356268
0.046592791 0.21103027 1.1120001 0.15669911
0.046592791 0.21314481 1.1120001 0.15669911
0.040864512 0.22069706 1.1290001 0.15669911
0.042897083 0.22011063 1.126 0.15669911
0.044678252 0.2183513 1.1170001 0.15669911
0.046397258 0.21856415 1.1073333 0.15669911
0.040828317 0.22371808 1.128 0.15669911
0.041716017 0.22485901 1.123 0.15669911
0.044198271 0.21810678 1.105 0.15669911
0.043045223 0.22558428 1.1160001 0.15669911
0.039094884 0.22935069 1.1400001 0.15669911
0.044398263 0.22542463 1.1100001 0.15669911
0.046257593 0.22210804 1.1040001 0.15669911
0.03871765 0.22928454 1.1290001 0.15669911
0.047595941 0.22572519 1.0986251 0.15669911
0.036959499 0.23497514 1.141 0.15669911
0.038580477 0.23168012 1.125 0.15669911
0.040350921 0.23148474 1.1148 0.15669911
0.042616345 0.23167801 1.1076 0.15669911
0.036570791 0.23572513 1.1290001 0.15669911
0.037272945 0.23330636 1.1073333 0.15669911
0.046089992 0.2296702 1.1 0.15669911
0.043158174 0.23301697 1.1000001 0.15669911
0.043309845 0.23407073 1.0932 0.15669911
0.032287065 0.2365223 1.0930001 0.15669911
0.002126205 0.18566993 1.1966 0.066674724
0.010313841 0.18492176 1.1961876 0.066674724
0.026247393 0.18500035 1.1966876 0.066674724
0.034211915 0.18499817 1.1966666 0.066674724
0.042205218 0.18512808 1.1975002 0.066674724
0.018276082 0.18606631 1.1962223 0.066674724
0.0023459459 0.19115864 1.1925 0.066674724
0.0095913718 0.19027111 1.1912 0.066674724
0.018658414 0.19078779 1.1916001 0.066674724
0.026488574 0.19299664 1.1928571 0.066674724
0.034103654 0.19318104 1.1929091 0.066674724
0.042077571 0.19364573 1.1938751 0.066674724
0.01055549 0.19410467 1.1884546 0.066674724
0.017836468 0.19456394 1.1885716 0.066674724
0.0023390607 0.19511904 1.1890001 0.066674724
0.023828615 0.19633299 1.1895001 0.066674724
0.034021005 0.19641551 1.1900001 0.066674724
0.0023322699 0.20015115 1.1853335 0.066674724
0.0099104727 0.19992141 1.1851819 0.066674724
0.018095074 0.19885738 1.1843334 0.066674724
0.025709553 0.20007268 1.1860909 0.066674724
0.034202609 0.20006596 1.1865001 0.066674724
0.041523676 0.20053148 1.1855385 0.066674724
0.01085638 0.20346351 1.1810001 0.066674724
0.018041283 0.20276044 1.1808333 0.066674724
0.026572753 0.20342895 1.1808001 0.066674724
0.033230383 0.20352378 1.182 0.066674724
0.0023246123 0.20397057 1.1813334 0.066674724
0.0427454 0.20391302 1.1810001 0.066674724
0.0023196831 0.20911042 1.1786667 0.066674724
0.010155641 0.20896965 1.177875 0.066674724
0.017994491 0.20894785 1.17775 0.066674724
0.025860934 0.2091812 1.1790626 0.066674724
0.033697311 0.20911042 1.1786667 0.066674724
0.04158546 0.20933813 1.1799376 0.066674724
-0.002158981 0.21423094 1.176 0.066674724
0.0023152132 0.21656962 1.1765555 0.066674724
0.01033151 0.21584454 1.1795715 0.066674724
0.015779935 0.21714526 1.1796666 0.066674724
0.019025575 0.21691138 1.1723751 0.066674724
0.02806545 0.21450418 1.1775 0.066674724
0.033620756 0.21423094 1.176 0.066674724
0.041982561 0.21547557 1.1775714 0.066674724
0.010220302 0.21985984 1.18525 0.066674724
0.0091449386 0.22281229 1.192 0.066674724
0.0105941 0.22263052 1.1850001 0.066674724
0.013563504 0.22431456 1.182 0.066674724
0.032804064 0.24140598 1.1474999 0.13065825
0.020947395 0.24973285 1.1468571 0.13065825
0.025792927 0.24866295 1.1461 0.13065825
0.03055721 0.24559768 1.1450001 0.13065825
0.032591552 0.24452519 1.1400001 0.13065825
0.030130209 0.24431261 1.1290001 0.13065825
0.028330354 0.25060239 1.143 0.13065825
0.030130211 0.24967885 1.1289999 0.13065825
0.019687964 0.25452897 1.146 0.13065825
0.020288609 0.25754261 1.1390001 0.13065825
0.024809163 0.25556284 1.1381429 0.13065825
0.02810728 0.25186375 1.1340001 0.13065825
0.026609955 0.25740424 1.1315001 0.13065825
0.015503486 0.26292604 1.159 0.13065825
0.030103523 0.25482106 1.128 0.13065825
0.031962592 0.25256199 1.118 0.13065825
0.030023461 0.2562826 1.125 0.13065825
0.031876825 0.25718582 1.115 0.13065825
0.013316792 0.26768035 1.1605 0.13065825
0.015523551 0.26768035 1.1605 0.13065825
0.018463457 0.26425317 1.1378335 0.13065825
0.021638175 0.26048923 1.1340001 0.13065825
0.029283054 0.25890395 1.1240001 0.13065825
0.025119284 0.26291785 1.1290001 0.13065825
0.013299579 0.27174175 1.159 0.13065825
0.015503486 0.27174175 1.159 0.13065825
0.02003875 0.26648912 1.1307143 0.13065825
0.027108841 0.26567301 1.1225001 0.13065825
0.033774175 0.26573631 1.114091 0.13065825
0.017241411 0.27102697 1.1285 0.13065825
0.01875563 0.27261215 1.1228751 0.13065825
0.021447364 0.26887894 1.1240001 0.13065825
0.029863337 0.26768285 1.1190001 0.13065825
0.023521766 0.27029294 1.1210001 0.13065825
0.02688876 0.27142313 1.1160909 0.13065825
0.031791054 0.27023745 1.1120001 0.13065825
0.034612015 0.2731427 1.1086155 0.13065825
0.020436704 0.27492723 1.1156 0.13065825
0.016431553 0.27835584 1.1220001 0.13065825
0.026474215 0.27521411 1.1107501 0.13065825
0.025364401 0.21712093 1.1709286 0.16233188
0.034311786 0.2181271 1.171818 0.16233188
0.041770827 0.2185415 1.1717144 0.16233188
0.047476303 0.21839127 1.1647999 0.16233188
0.015767675 0.22481591 1.17875 0.16233188
0.017916195 0.22477384 1.1726668 0.16233188
0.020048739 0.22479662 1.1670001 0.16233188
0.02424961 0.2253073 1.1662 0.16233188
0.027867457 0.22410204 1.1691668 0.16233188
0.034220651 0.22381535 1.1687274 0.16233188
0.040830377 0.22258782 1.1690001 0.16233188
0.041588943 0.22426333 1.1642501 0.16233188
0.042475626 0.2247605 1.1582501 0.16233188
0.046158195 0.22119524 1.154 0.16233188
0.035094924 0.22740778 1.1656001 0.16233188
0.015750954 0.23129691 1.1775 0.16233188
0.01715932 0.23315375 1.1718335 0.16233188
0.019546883 0.23365369 1.1636 0.16233188
0.024936533 0.23176582 1.1620834 0.16233188
0.03278964 0.23031957 1.1624 0.16233188
0.037542559 0.22876538 1.159 0.16233188
0.033843994 0.23354936 1.1559091 0.16233188
0.039506409 0.22957432 1.1520001 0.16233188
0.027375225 0.23513226 1.1578001 0.16233188
0.015657317 0.24104987 1.1705 0.16233188
0.03607665 0.23413503 1.1475 0.16233188
0.018335236 0.24026699 1.164 0.16233188
0.025239475 0.23971921 1.1546155 0.16233188
0.020407408 0.24190919 1.156 0.16233188
0.031879827 0.23974332 1.1535001 0.16233188
0.015623876 0.24608901 1.1680001 0.16233188
0.016666258 0.24842338 1.1633333 0.16233188
0.026305621 0.24382986 1.1495001 0.16233188
0.01874635 0.24889775 1.1552501 0.16233188
0.021943476 0.24448335 1.1500001 0.16233188
0.015539157 0.25579765 1.1616668 0.16233188
0.017205501 0.25784299 1.155 0.16233188
0.050669789 -0.099684522 1.00425 0.067830473
0.058281701 -0.099634893 1.0037501 0.067830473
0.065948345 -0.099684529 1.00425 0.067830473
0.07358785 -0.099684522 1.00425 0.067830473
0.082058445 -0.099540599 1.0028 0.067830473
0.090663776 -0.09956044 1.0030001 0.067830473
0.049415138 -0.094527625 1.0104212 0.067830473
0.051698465 -0.097912796 1.0056667 0.067830473
0.056442499 -0.097847894 1.005 0.067830473
0.058657527 -0.095473103 1.0102501 0.067830473
0.066624753 -0.095345713 1.0103573 0.067830473
0.068932958 -0.097945251 1.006 0.067830473
0.073697299 -0.09792091 1.0057501 0.067830473
0.081691258 -0.095449075 1.01 0.067830473
0.089958102 -0.097925775 1.0058 0.067830473
0.073792145 -0.094201021 1.010077 0.067830473
0.089768477 -0.09466669 1.0103078 0.067830473
0.097398825 -0.093287423 1.0097692 0.067830473
0.058348898 -0.091834575 1.0160002 0.067830473
0.064818352 -0.091879457 1.0165001 0.067830473
0.051238619 -0.091146022 1.0155001 0.067830473
0.075339891 -0.091101147 1.0150001 0.067830473
0.082095191 -0.091101147 1.0150001 0.067830473
0.089858808 -0.091146022 1.0155001 0.067830473
0.043450683 -0.075585887 1.0140001 0.071601741
0.046342958 -0.075585887 1.0140001 0.071601741
0.05501977 -0.075585887 1.0140001 0.071601741
0.041274905 -0.070347391 1.008 0.071601741
0.050663657 -0.070725247 1.0079 0.071601741
0.058208924 -0.071732506 1.008 0.071601741
0.066473559 -0.07049001 1.0080715 0.071601741
0.073944598 -0.070426263 1.0091251 0.071601741
0.081850275 -0.070251964 1.0085715 0.071601741
0.088908195 -0.073778763 1.0156667 0.071601741
0.089467712 -0.070603177 1.0088999 0.071601741
0.042452458 -0.069870465 1.0049092 0.071601741
0.050328616 -0.070040971 1.0055715 0.071601741
0.079454288 -0.071163595 1.006 0.071601741
0.058796257 -0.06840127 1.0055715 0.071601741
0.06411913 -0.069216207 1.0055001 0.071601741
0.091462553 -0.067896575 1.0048333 0.071601741
0.050456867 -0.064864181 1.0105555 0.071601741
0.098238125 -0.099510819 1.0025001 0.067743123
0.10573447 -0.099386737 1.00125 0.067743123
0.11371145 -0.099287473 1.00025 0.067743123
0.11594474 -0.099163391 0.99900007 0.067743123
0.1228404 -0.099361926 1.0009999 0.067743123
0.12759763 -0.099361919 1.001 0.067743123
0.13105385 -0.099097222 0.99833339 0.067743123
0.13684097 -0.099163391 0.99900007 0.067743123
0.098865315 -0.097001038 1.0047144 0.067743123
0.10540098 -0.096640587 1.0048751 0.067743123
0.11375091 -0.096298613 1.0048001 0.067743123
0.12135884 -0.097161554 1.0045 0.067743123
0.13010447 -0.095934644 1.0035714 0.067743123
0.13811347 -0.096231028 1.0041001 0.067743123
0.10719129 -0.093609832 1.00825 0.067743123
0.12185295 -0.093977302 1.0086 0.067743123
0.11405801 -0.092982106 1.0075001 0.067743123
0.12884817 -0.09275429 1.0078 0.067743123
0.13836978 -0.093012661 1.0078334 0.067743123
0.12996198 -0.088904947 1.012 0.067743123
0.098109864 -0.072481386 1.011 0.18830696
0.10551677 -0.073144838 1.0113333 0.18830696
0.11471895 -0.072525717 1.0097144 0.18830696
0.12166376 -0.072302692 1.0104285 0.18830696
0.12576938 -0.073875621 1.0170001 0.18830696
0.13005963 -0.071749017 1.0181428 0.18830696
0.10625695 -0.068922512 1.0037274 0.18830696
0.11351858 -0.068582788 1.0055556 0.18830696
0.09842436 -0.068184406 1.0043751 0.18830696
0.12135979 -0.068192296 1.0045002 0.18830696
0.12778553 -0.068565682 1.01 0.18830696
0.13403003 -0.06834168 1.021 0.18830696
0.10556362 -0.064765334 1.0056667 0.18830696
0.11417057 -0.063003428 1.0102 0.18830696
0.12159558 -0.063065998 1.009111 0.18830696
0.12249608 -0.065424666 1.006 0.18830696
0.12878989 -0.063784212 1.0103334 0.18830696
0.13168178 -0.06191944 1.0157144 0.18830696
0.13563856 -0.063335806 1.0185001 0.18830696
0.056729697 -0.087905005 1.0204999 0.16019605
0.065531194 -0.088160254 1.0200833 0.16019605
0.075033411 -0.087875202 1.0203636 0.16019605
0.082166821 -0.088305183 1.0198889 0.16019605
0.090882532 -0.087676294 1.0200909 0.16019605
0.058483165 -0.085093729 1.024 0.16019605
0.065969624 -0.084796898 1.0243335 0.16019605
0.073286049 -0.084747158 1.0248573 0.16019605
0.083321676 -0.085036792 1.025 0.16019605
0.08930064 -0.084948286 1.0246 0.16019605
0.056897942 -0.081577346 1.0246668 0.16019605
0.065346897 -0.081259266 1.0247501 0.16019605
0.073401205 -0.081522726 1.0250001 0.16019605
0.082945399 -0.082293287 1.0255001 0.16019605
0.090256914 -0.081117548 1.0247144 0.16019605
0.090692014 -0.077636413 1.0212222 0.16019605
0.097222127 -0.078116879 1.0218571 0.16019605
0.099212281 -0.080053106 1.0245557 0.16019605
0.058651473 -0.077718981 1.0194445 0.16019605
0.075064063 -0.077520579 1.0191 0.16019605
0.082561448 -0.079002008 1.02075 0.16019605
0.066369861 -0.077029556 1.018889 0.16019605
0.081913918 -0.07549271 1.01275 0.16019605
0.058643401 -0.064721897 1.01 0.067930602
0.066392563 -0.064786449 1.011 0.067930602
0.074136712 -0.064834766 1.01175 0.067930602
0.081741691 -0.064763017 1.0106251 0.067930602
0.089955345 -0.063961074 1.0101 0.067930602
0.092799395 -0.065392151 1.0055001 0.067930602
0.098392673 -0.065042071 1.006 0.067930602
0.04919314 -0.061793283 1.0197779 0.067930602
0.097971901 -0.062638059 1.0095716 0.067930602
0.057228521 -0.061424214 1.0190001 0.067930602
0.065940753 -0.061418425 1.0189002 0.067930602
0.074666768 -0.061424688 1.0190001 0.067930602
0.082339019 -0.061363932 1.018 0.067930602
0.089301236 -0.060953017 1.0165001 0.067930602
0.097584844 -0.060249373 1.0155001 0.067930602
0.049671989 -0.054656774 1.0274445 0.067930602
0.051617522 -0.058749042 1.023 0.067930602
0.057426278 -0.058720328 1.0225 0.067930602
0.065168917 -0.058691617 1.022 0.067930602
0.073973186 -0.058737557 1.0228001 0.067930602
0.082662791 -0.058691613 1.0220001 0.067930602
0.090299584 -0.057634011 1.0205001 0.067930602
0.09803281 -0.056643248 1.0201666 0.067930602
0.057685435 -0.054098312 1.027125 0.067930602
0.065513343 -0.054111123 1.027375 0.067930602
0.073620602 -0.054289006 1.0274707 0.067930602
0.081625372 -0.05410897 1.0273125 0.067930602
0.089940257 -0.053142782 1.0274667 0.067930602
0.098531999 -0.052060239 1.0253751 0.067930602
0.050575491 -0.047099214 1.0357856 0.067930602
0.057898406 -0.047106065 1.0359286 0.067930602
0.06638471 -0.048325345 1.035889 0.067930602
0.073859736 -0.047618616 1.0348333 0.067930602
0.081980191 -0.047037579 1.0344285 0.067930602
0.089228474 -0.049381934 1.0305001 0.067930602
0.097996444 -0.049357977 1.0300001 0.067930602
0.089610972 -0.045654804 1.0349166 0.067930602
0.097622983 -0.045720667 1.0364165 0.067930602
0.06596721 -0.044800092 1.0411429 0.067930602
0.060415283 -0.043925397 1.0405 0.067930602
0.074283376 -0.043935951 1.04075 0.067930602
0.080239072 -0.043946508 1.041 0.067930602
0.085024215 -0.041886352 1.039 0.067930602
0.087987795 -0.041886352 1.039 0.067930602
0.051478941 -0.040555388 1.0443335 0.066717669
0.058289871 -0.040754206 1.0437779 0.066717669
0.066652715 -0.041144032 1.0452501 0.066717669
0.074599005 -0.040145915 1.0451667 0.066717669
0.082308874 -0.040304709 1.0435556 0.066717669
0.090661161 -0.038672488 1.0437857 0.066717669
0.058968823 -0.037336607 1.0500001 0.066717669
0.065979667 -0.037349977 1.050375 0.066717669
0.08247897 -0.036952551 1.0485001 0.066717669
0.073943794 -0.036339872 1.0500001 0.066717669
0.057136152 -0.033438984 1.053 0.066717669
0.065184779 -0.033458956 1.0536251 0.066717669
0.073382713 -0.032599006 1.0523639 0.066717669
0.081668414 -0.033529822 1.0523334 0.066717669
0.090096362 -0.032590948 1.0520909 0.066717669
0.049282063 -0.029193662 1.0563334 0.066717669
0.057338439 -0.029540066 1.0567501 0.066717669
0.06540893 -0.029553805 1.05725 0.066717669
0.072788447 -0.028927723 1.0564001 0.066717669
0.081629105 -0.029602963 1.059 0.066717669
0.089092597 -0.029004853 1.0592 0.066717669
0.049522154 -0.026645316 1.0615001 0.066717669
0.057527635 -0.026613938 1.06025 0.066717669
0.065626413 -0.026626488 1.06075 0.066717669
0.073691398 -0.026626488 1.06075 0.066717669
0.078754313 -0.026632763 1.0610001 0.066717669
0.082378015 -0.023513619 1.0661334 0.066717669
0.089827076 -0.026626488 1.06075 0.066717669
0.049787953 -0.022726605 1.0671667 0.066717669
0.057889368 -0.022720488 1.0669167 0.066717669
0.065987773 -0.022713387 1.0665833 0.066717669
0.074422635 -0.022912407 1.0672727 0.066717669
0.090238295 -0.022693833 1.0655835 0.066717669
0.071350306 -0.020774048 1.0710001 0.066717669
0.085446432 -0.018702481 1.069 0.066717669
0.090056062 -0.017822977 1.0685716 0.066717669
0.09051197 -0.01411998 1.074 0.066717669
0.098281585 -0.089935102 1.01275 0.17341794
0.10680648 -0.090345345 1.0127143 0.17341794
0.11446827 -0.089791149 1.0111251 0.17341794
0.12229397 -0.089891404 1.0122501 0.17341794
0.09785267 -0.086136326 1.0182859 0.17341794
0.10546211 -0.08640638 1.0188668 0.17341794
0.11362152 -0.085663594 1.0174617 0.17341794
0.12197391 -0.08552777 1.0176156 0.17341794
0.13861544 -0.085308552 1.0170909 0.17341794
0.13022228 -0.084504992 1.0182223 0.17341794
0.10429271 -0.081238963 1.0245001 0.17341794
0.10643771 -0.078310966 1.0201668 0.17341794
0.1133916 -0.078917116 1.0204666 0.17341794
0.1211997 -0.078792341 1.0214547 0.17341794
0.12960292 -0.081027351 1.0218334 0.17341794
0.13838969 -0.080879249 1.0213335 0.17341794
0.11689907 -0.080225714 1.024 0.17341794
0.12235121 -0.079836272 1.024 0.17341794
0.12993638 -0.078525372 1.0249091 0.17341794
0.13741168 -0.077342652 1.0245001 0.17341794
0.13247664 -0.074384101 1.024 0.17341794
0.13852085 -0.06377013 1.0255001 0.075139813
0.10707159 -0.061895113 1.0108889 0.075139813
0.10432476 -0.060239483 1.0153334 0.075139813
0.11780171 -0.060219709 1.0150001 0.075139813
0.12262692 -0.060219709 1.0150001 0.075139813
0.10573869 -0.056615327 1.0196667 0.075139813
0.11350594 -0.056620907 1.0197501 0.075139813
0.12133168 -0.056654084 1.0203334 0.075139813
0.12979628 -0.056798276 1.0204288 0.075139813
0.13555178 -0.056232698 1.0215001 0.075139813
0.13737777 -0.053750589 1.0266668 0.075139813
0.10638428 -0.052085631 1.0258751 0.075139813
0.11424202 -0.052110776 1.0263751 0.075139813
0.12194472 -0.052066233 1.0255001 0.075139813
0.12968236 -0.052041084 1.0250001 0.075139813
0.10676078 -0.049334016 1.0295001 0.075139813
0.11470082 -0.049381938 1.0305001 0.075139813
0.12309345 -0.048688497 1.0296668 0.075139813
0.12965091 -0.04893712 1.0294001 0.075139813
0.13619079 -0.049357977 1.0300001 0.075139813
0.13716534 -0.046091471 1.0348889 0.075139813
0.10536129 -0.045658007 1.035 0.075139813
0.11364624 -0.045823958 1.0353078 0.075139813
0.12148872 -0.045277361 1.0344546 0.075139813
0.13039631 -0.045444593 1.0341818 0.075139813
0.11169644 -0.041886352 1.039 0.075139813
0.12349083 -0.041866191 1.0385001 0.075139813
0.1293847 -0.041856114 1.0382501 0.075139813
0.13428785 -0.041846033 1.0380001 0.075139813
0.14391017 -0.048081584 1.0448 0.071337767
0.14663012 -0.047033075 1.051 0.071337767
0.14068207 -0.044956431 1.0415001 0.071337767
0.1488056 -0.044621959 1.057 0.071337767
0.1377968 -0.039565824 1.0441817 0.071337767
0.14341593 -0.042208862 1.0470001 0.071337767
0.14704677 -0.040268056 1.0588001 0.071337767
0.14026663 -0.03732089 1.0495 0.071337767
0.14403233 -0.039389603 1.0515001 0.071337767
0.14916293 -0.038858566 1.0643334 0.071337767
0.13700764 -0.03167782 1.0520002 0.071337767
0.14243805 -0.033487335 1.0545001 0.071337767
0.14457168 -0.032666814 1.0603334 0.071337767
0.14670125 -0.031868257 1.06725 0.071337767
0.14009647 -0.029211665 1.057 0.071337767
0.14892522 -0.029053472 1.076 0.071337767
0.13548408 -0.026482156 1.0550001 0.071337767
0.13818702 -0.025368905 1.0588 0.071337767
0.14321096 -0.023752088 1.06775 0.071337767
0.14609367 -0.023895185 1.074 0.071337767
0.13824943 -0.022086231 1.0641429 0.071337767
0.14821014 -0.02201521 1.082 0.071337767
0.1373148 -0.018706854 1.06925 0.071337767
0.14316295 -0.01880745 1.075 0.071337767
0.050343256 -0.015527504 1.0746666 0.067165017
