# .PCD v0.7 - Point Cloud Data file format
VERSION 0.7
FIELDS x y z rgba
SIZE 4 4 4 4
TYPE F F F U
COUNT 1 1 1 1
WIDTH 1140
HEIGHT 1
VIEWPOINT 0 0 0 1 0 0 0
POINTS 1140
DATA ascii
-0.31105348 0.14934337 1.212 4284048239
-0.30874881 0.14934337 1.212 4284245618
-0.30644411 0.14934337 1.212 4284245618
-0.30413944 0.14934337 1.212 4284047726
-0.30233282 0.14958982 1.2140001 4284244592
-0.30027148 0.14971304 1.215 4284506996
-0.29796109 0.14971304 1.215 4284046186
-0.29565069 0.14971304 1.215 4285033592
-0.29358172 0.14983624 1.2160001 4289704895
-0.2910299 0.14971304 1.215 4289244343
-0.28871951 0.14971304 1.215 4289178550
-0.28664485 0.14983624 1.2160001 4289046451
-0.28456634 0.14995947 1.217 4289243830
-0.28248408 0.15008269 1.2180001 4289046705
-0.280168 0.15008269 1.2180001 4288915119
-0.27785188 0.15008269 1.2180001 4288915119
-0.27553579 0.15008269 1.2180001 4288915119
-0.27299535 0.14995947 1.217 4288980912
-0.27090359 0.15008269 1.2180001 4288980912
-0.2685875 0.15008269 1.2180001 4288980912
-0.26627138 0.15008269 1.2180001 4288980912
-0.2639553 0.15008269 1.2180001 4289045937
-0.26142436 0.14995947 1.217 4288914865
-0.25911018 0.14995947 1.217 4289046451
-0.25679597 0.14995947 1.217 4288849585
-0.2542727 0.14983624 1.2160001 4288783792
-0.2519604 0.14983624 1.2160001 4288849585
-0.24985339 0.14995947 1.217 4288980658
-0.24774259 0.15008269 1.2180001 4288980658
-0.24542649 0.15008269 1.2180001 4288915119
-0.24331 0.15020591 1.2190001 4288783533
-0.24118969 0.15032914 1.22 4288980912
-0.23886979 0.15032914 1.22 4288915119
-0.23654988 0.15032914 1.22 4288849324
-0.23422998 0.15032914 1.22 4288783531
-0.23191008 0.15032914 1.22 4288717738
-0.22977838 0.15045236 1.2210001 4288717738
-0.22745657 0.15045236 1.2210001 4288848808
-0.22513476 0.15045236 1.2210001 4288848808
-0.22263047 0.15032914 1.22 4288914088
-0.22031057 0.15032914 1.22 4288914088
-0.21799067 0.15032914 1.22 4288848808
-0.21584755 0.15045236 1.2210001 4288848808
-0.21335086 0.15032914 1.22 4288848808
-0.21103096 0.15032914 1.22 4288848808
-0.20888214 0.15045236 1.2210001 4288914601
-0.20656033 0.15045236 1.2210001 4288980394
-0.20423853 0.15045236 1.2210001 4289046187
-0.20191672 0.15045236 1.2210001 4289046187
-0.19959493 0.15045236 1.2210001 4288980908
-0.19727312 0.15045236 1.2210001 4288980908
-0.19495131 0.15045236 1.2210001 4288980908
-0.19278726 0.15057558 1.222 4289046701
-0.19030771 0.15045236 1.2210001 4289046701
-0.1879859 0.15045236 1.2210001 4289046701
-0.1856641 0.15045236 1.2210001 4289177773
-0.18349245 0.15057558 1.222 4289243566
-0.1810205 0.15045236 1.2210001 4289243566
-0.17869869 0.15045236 1.2210001 4289177773
-0.17637688 0.15045236 1.2210001 4289111980
-0.17391253 0.15032914 1.22 4289111980
-0.17145199 0.15020591 1.2190001 4289243566
-0.16927272 0.15032914 1.22 4289375152
-0.16708967 0.15045236 1.2210001 4289309359
-0.16476786 0.15045236 1.2210001 4289309359
-0.16244607 0.15045236 1.2210001 4289309359
-0.16012426 0.15045236 1.2210001 4289309359
-0.15780245 0.15045236 1.2210001 4289309359
-0.15548065 0.15045236 1.2210001 4289309359
-0.15315884 0.15045236 1.2210001 4289309359
-0.15096056 0.15057558 1.222 4289309359
-0.1487585 0.1506988 1.223 4289375152
-0.14631316 0.15057558 1.222 4289309359
-0.14398946 0.15057558 1.222 4289243566
-0.14166574 0.15057558 1.222 4289243566
-0.13934204 0.15057558 1.222 4289309359
-0.13713047 0.1506988 1.223 4289309359
-0.13480486 0.1506988 1.223 4289243566
-0.13237092 0.15057558 1.222 4289177773
-0.13004722 0.15057558 1.222 4289177773
-0.12782805 0.1506988 1.223 4289177773
-0.12539981 0.15057558 1.222 4289243566
-0.12307611 0.15057558 1.222 4289243566
-0.12065359 0.15045236 1.2210001 4289243566
-0.11833179 0.15045236 1.2210001 4289243566
-0.11600999 0.15045236 1.2210001 4289177773
-0.1138744 0.1506988 1.223 4289177773
-0.11164 0.15082201 1.2240001 4289177773
-0.1094018 0.15094523 1.225 4289309359
-0.10707239 0.15094523 1.225 4289375152
-0.10474298 0.15094523 1.225 4289309359
-0.10241357 0.15094523 1.225 4289177773
-0.10008416 0.15094523 1.225 4289046187
-0.097754747 0.15094523 1.225 4289111980
-0.095503241 0.15106846 1.2260001 4289177773
-0.093171932 0.15106846 1.2260001 4289177773
-0.090914711 0.15119168 1.2270001 4289309359
-0.088581502 0.15119168 1.2270001 4289309359
-0.086248286 0.15119168 1.2270001 4289243566
-0.083846688 0.15106846 1.2260001 4289177773
-0.081515372 0.15106846 1.2260001 4289243566
-0.079184063 0.15106846 1.2260001 4289177773
-0.076852746 0.15106846 1.2260001 4289111980
-0.074460648 0.15094523 1.225 4289375152
-0.072072357 0.15082201 1.2240001 4289375152
-0.069687866 0.1506988 1.223 4289375152
-0.067362264 0.1506988 1.223 4289309359
-0.065089829 0.15082201 1.2240001 4289309359
-0.06276232 0.15082201 1.2240001 4289243566
-0.06048419 0.15094523 1.225 4289177773
-0.058202252 0.15106846 1.2260001 4289111980
-0.055870943 0.15106846 1.2260001 4289243566
-0.053495962 0.15094523 1.225 4289375152
-0.051124781 0.15082201 1.2240001 4289375152
-0.048797272 0.15082201 1.2240001 4289243566
-0.046431798 0.1506988 1.223 4289177773
-0.044106193 0.1506988 1.223 4289243566
-0.041814744 0.15082201 1.2240001 4289243566
-0.039487235 0.15082201 1.2240001 4289177773
-0.037190091 0.15094523 1.225 4289111467
-0.034889136 0.15106846 1.2260001 4289045674
-0.032557826 0.15106846 1.2260001 4289111467
-0.03020186 0.15094523 1.225 4289243053
-0.027872451 0.15094523 1.225 4289243053
-0.025522187 0.15082201 1.2240001 4289177260
-0.023213631 0.15094523 1.225 4289177773
-0.02088422 0.15094523 1.225 4289243566
-0.01855481 0.15094523 1.225 4289111980
-0.016225399 0.15094523 1.225 4289046187
-0.013895988 0.15094523 1.225 4289046187
-0.01157602 0.15106846 1.2260001 4289046187
-0.0092522502 0.15119168 1.2270001 4289046187
-0.0069190371 0.15119168 1.2270001 4289111980
-0.0045858235 0.15119168 1.2270001 4289177773
-0.0022526102 0.15119168 1.2270001 4289177773
8.0537255e-05 0.15106846 1.2260001 4288980394
0.0024079145 0.15082201 1.2240001 4288980394
0.0047315541 0.1506988 1.223 4288980394
0.0070513906 0.15057558 1.222 4288980394
0.0093750954 0.15057558 1.222 4288914601
0.011698801 0.15057558 1.222 4288848808
0.014022507 0.15057558 1.222 4288651429
0.016346212 0.15057558 1.222 4288585636
0.018669916 0.15057558 1.222 4288914601
0.020993622 0.15057558 1.222 4288914601
0.023317328 0.15057558 1.222 4288914601
0.025641033 0.15057558 1.222 4288980394
0.027964739 0.15057558 1.222 4288980394
0.030263659 0.15045236 1.2210001 4288980394
0.032612149 0.15057558 1.222 4288980394
0.034964446 0.1506988 1.223 4288914601
0.03725956 0.15057558 1.222 4289111979
0.039583266 0.15057558 1.222 4289046186
0.041906971 0.15057558 1.222 4288980393
0.044230677 0.15057558 1.222 4288980393
0.046554383 0.15057558 1.222 4289046187
0.048838086 0.15045236 1.2210001 4289111980
0.051117994 0.15032914 1.22 4289111980
0.053437896 0.15032914 1.22 4289046187
0.0558035 0.15045236 1.2210001 4289046187
0.058125302 0.15045236 1.2210001 4289046187
0.060496613 0.15057558 1.222 4289111980
0.062820323 0.15057558 1.222 4289111980
0.065144025 0.15057558 1.222 4289045933
0.067467734 0.15057558 1.222 4288980140
0.069791436 0.15057558 1.222 4288980140
0.072115138 0.15057558 1.222 4288980140
0.074438848 0.15057558 1.222 4288915117
0.076825373 0.1506988 1.223 4288783531
0.079150975 0.1506988 1.223 4288783531
0.081409961 0.15057558 1.222 4288783531
0.083665147 0.15045236 1.2210001 4288717738
0.08598695 0.15045236 1.2210001 4288586152
0.088308752 0.15045236 1.2210001 4288586152
0.090630554 0.15045236 1.2210001 4288717738
0.092952363 0.15045236 1.2210001 4288718251
0.095274165 0.15045236 1.2210001 4288718251
0.097516038 0.15032914 1.22 4288718251
0.099917769 0.15045236 1.2210001 4288652458
0.10215584 0.15032914 1.22 4288586665
0.10439011 0.15020591 1.2190001 4288586665
0.10670812 0.15020591 1.2190001 4288652458
0.10893667 0.15008269 1.2180001 4288718251
0.11125278 0.15008269 1.2180001 4288586665
0.11366212 0.15020591 1.2190001 4288652458
0.11598012 0.15020591 1.2190001 4288718251
0.11829812 0.15020591 1.2190001 4288784044
0.12071506 0.15032914 1.22 4288784044
0.12303496 0.15032914 1.22 4288849837
0.12525211 0.15020591 1.2190001 4288849837
0.12746547 0.15008269 1.2180001 4288849837
0.12978157 0.15008269 1.2180001 4288784044
0.13188076 0.14983624 1.2160001 4288849837
0.13419305 0.14983624 1.2160001 4288915630
0.13650535 0.14983624 1.2160001 4288981423
0.1389318 0.14995947 1.217 4289047216
0.14124599 0.14995947 1.217 4289113009
0.14356019 0.14995947 1.217 4289178802
0.1458744 0.14995947 1.217 4289178802
0.14818859 0.14995947 1.217 4289113009
0.15037912 0.14983624 1.2160001 4289178802
0.15269142 0.14983624 1.2160001 4289113009
0.15500371 0.14983624 1.2160001 4289047216
0.15731601 0.14983624 1.2160001 4289047216
0.1596283 0.14983624 1.2160001 4289178802
0.16207378 0.14995947 1.217 4289244595
0.16438797 0.14995947 1.217 4289178802
0.16670217 0.14995947 1.217 4288981423
0.16901636 0.14995947 1.217 4289113009
0.17118979 0.14983624 1.2160001 4289178802
0.17335941 0.14971304 1.215 4289178802
0.1756698 0.14971304 1.215 4289113009
0.17783371 0.14958982 1.2140001 4289113009
0.17984542 0.14934337 1.212 4289178802
0.18215011 0.14934337 1.212 4289244595
0.1844548 0.14934337 1.212 4289441459
0.18706767 0.14958982 1.2140001 4287533717
0.1910921 0.15094523 1.225 4286875785
0.19421099 0.15156133 1.23 4285099626
0.19654991 0.15156133 1.23 4284375900
-0.36333549 0.15427563 1.233 4289573811
-0.35718483 0.15264904 1.22 4286745229
-0.35370144 0.15214856 1.2160001 4284047462
-0.35023323 0.15164807 1.212 4284179050
-0.3476415 0.15152295 1.2110001 4284047466
-0.34505352 0.15139782 1.21 4284113004
-0.34246936 0.1512727 1.2090001 4284441969
-0.33988902 0.15114759 1.2080001 4284310383
-0.33731246 0.15102245 1.207 4283915625
-0.33529484 0.15114759 1.2080001 4284047211
-0.33327341 0.1512727 1.2090001 4284442224
-0.33124819 0.15139782 1.21 4284573808
-0.32921919 0.15152295 1.2110001 4284244843
-0.32718632 0.15164807 1.212 4284704624
-0.32514969 0.15177318 1.2130001 4284441452
-0.3228431 0.15177318 1.2130001 4284441454
-0.32053652 0.15177318 1.2130001 4284375661
-0.31796756 0.15164807 1.212 4283915880
-0.31540245 0.15152295 1.2110001 4284771702
-0.31309965 0.15152295 1.2110001 4284245103
-0.31028357 0.1512727 1.2090001 4284114030
-0.30772984 0.15114759 1.2080001 4284245618
-0.30543277 0.15114759 1.2080001 4284048239
-0.30338663 0.1512727 1.2090001 4283718761
-0.30133668 0.15139782 1.21 4284047213
-0.29953006 0.15164807 1.212 4284309615
-0.29722536 0.15164807 1.212 4283849064
-0.29516402 0.15177318 1.2130001 4286152073
-0.29309887 0.15189832 1.2140001 4289770688
-0.29055083 0.15177318 1.2130001 4289046451
-0.28824425 0.15177318 1.2130001 4289178037
-0.28617337 0.15189832 1.2140001 4289046705
-0.28386489 0.15189832 1.2140001 4289178291
-0.28178832 0.15202343 1.215 4288915119
-0.27970797 0.15214856 1.2160001 4288915119
-0.27739567 0.15214856 1.2160001 4288915117
-0.27508336 0.15214856 1.2160001 4288980910
-0.27277106 0.15214856 1.2160001 4288980912
-0.27045876 0.15214856 1.2160001 4289046705
-0.2672644 0.15164807 1.212 4289177521
-0.26517832 0.15177318 1.2130001 4289111728
-0.26308843 0.15189832 1.2140001 4289045935
-0.26077995 0.15189832 1.2140001 4288849326
-0.2588973 0.15214856 1.2160001 4288914865
-0.256585 0.15214856 1.2160001 4288783792
-0.25406358 0.15202343 1.215 4288783279
-0.25175318 0.15202343 1.215 4288849072
-0.24964811 0.15214856 1.2160001 4288915119
-0.24753921 0.15227368 1.217 4288915119
-0.24542649 0.15239879 1.2180001 4288849326
-0.24331 0.15252392 1.2190001 4288783533
-0.24099199 0.15252392 1.2190001 4288915117
-0.2384782 0.15239879 1.2180001 4288849324
-0.2361621 0.15239879 1.2180001 4288849324
-0.234038 0.15252392 1.2190001 4288849324
-0.23172 0.15252392 1.2190001 4288980394
-0.22940199 0.15252392 1.2190001 4289046187
-0.227084 0.15252392 1.2190001 4289046187
-0.224766 0.15252392 1.2190001 4289046187
-0.22244799 0.15252392 1.2190001 4289111467
-0.22013 0.15252392 1.2190001 4289111467
-0.21781199 0.15252392 1.2190001 4289046187
-0.21549399 0.15252392 1.2190001 4289046187
-0.213176 0.15252392 1.2190001 4288980394
-0.21085799 0.15252392 1.2190001 4289046187
-0.20853999 0.15252392 1.2190001 4289111980
-0.206222 0.15252392 1.2190001 4289177773
-0.20373671 0.15239879 1.2180001 4289177773
-0.20158599 0.15252392 1.2190001 4289177773
-0.19910452 0.15239879 1.2180001 4289046701
-0.19694999 0.15252392 1.2190001 4288980908
-0.19479164 0.15264904 1.22 4288980908
-0.19247174 0.15264904 1.22 4288980908
-0.18999599 0.15252392 1.2190001 4288980908
-0.18767798 0.15252392 1.2190001 4288980908
-0.18551204 0.15264904 1.22 4289111726
-0.18319213 0.15264904 1.22 4289177519
-0.18072398 0.15252392 1.2190001 4289243312
-0.17840599 0.15252392 1.2190001 4289243312
-0.17594352 0.15239879 1.2180001 4289177519
-0.17362742 0.15239879 1.2180001 4289177519
-0.17145199 0.15252392 1.2190001 4289177519
-0.16913398 0.15252392 1.2190001 4289243312
-0.16681598 0.15252392 1.2190001 4289177519
-0.16449797 0.15252392 1.2190001 4289177519
-0.16217998 0.15252392 1.2190001 4289177519
-0.15986198 0.15252392 1.2190001 4289243312
-0.15767321 0.15264904 1.22 4289243312
-0.15535331 0.15264904 1.22 4289177519
-0.15303341 0.15264904 1.22 4289177519
-0.15083705 0.15277417 1.2210001 4289177519
-0.14851524 0.15277417 1.2210001 4289309359
-0.14619343 0.15277417 1.2210001 4289243566
-0.14387164 0.15277417 1.2210001 4289177773
-0.14143389 0.15264904 1.22 4289177773
-0.13911399 0.15264904 1.22 4289309359
-0.13679409 0.15264904 1.22 4289309359
-0.13458441 0.15277417 1.2210001 4289243566
-0.13215429 0.15264904 1.22 4289177773
-0.12994081 0.15277417 1.2210001 4289177773
-0.127619 0.15277417 1.2210001 4289177773
-0.1252972 0.15277417 1.2210001 4289177773
-0.12287468 0.15264904 1.22 4289177773
-0.12055477 0.15264904 1.22 4289177773
-0.11813796 0.15252392 1.2190001 4289177773
-0.11581995 0.15252392 1.2190001 4289111980
-0.11368818 0.15277417 1.2210001 4289111980
-0.11145759 0.15289928 1.222 4289177773
-0.10922319 0.15302442 1.223 4289309359
-0.10689758 0.15302442 1.223 4289440945
-0.10457198 0.15302442 1.223 4289440945
-0.10232997 0.15314953 1.2240001 4289243566
-0.099920757 0.15302442 1.223 4289111980
-0.097595148 0.15302442 1.223 4289111980
-0.095347442 0.15314953 1.2240001 4289111980
-0.093095928 0.15327466 1.225 4289111980
-0.090766519 0.15327466 1.225 4289243566
-0.088509306 0.15339978 1.2260001 4289309359
-0.086177997 0.15339978 1.2260001 4289243566
-0.083846688 0.15339978 1.2260001 4289177773
-0.081515372 0.15339978 1.2260001 4289243566
-0.079119466 0.15327466 1.225 4289243566
-0.076790057 0.15327466 1.225 4289177773
-0.074399866 0.15314953 1.2240001 4289375152
-0.072013475 0.15302442 1.223 4289309359
-0.069630891 0.15289928 1.222 4289309359
-0.067362264 0.15302442 1.223 4289309359
-0.065036654 0.15302442 1.223 4289243566
-0.062711045 0.15302442 1.223 4289177773
-0.060434815 0.15314953 1.2240001 4289177773
-0.05815478 0.15327466 1.225 4289111980
-0.055825371 0.15327466 1.225 4289309359
-0.053495962 0.15327466 1.225 4289440945
-0.051124781 0.15314953 1.2240001 4289375152
-0.048757404 0.15302442 1.223 4289243566
-0.046393834 0.15289928 1.222 4289111980
-0.044034068 0.15277417 1.2210001 4289177773
-0.041712262 0.15277417 1.2210001 4289111980
-0.039422717 0.15289928 1.222 4289046187
-0.037129369 0.15302442 1.223 4289177260
-0.034832221 0.15314953 1.2240001 4289111467
-0.032504711 0.15314953 1.2240001 4289111467
-0.030177204 0.15314953 1.2240001 4289243053
-0.027826943 0.15302442 1.223 4289308846
-0.025501335 0.15302442 1.223 4289243053
-0.02319468 0.15314953 1.2240001 4289177773
-0.020867171 0.15314953 1.2240001 4289243566
-0.01855481 0.15327466 1.225 4289177773
-0.016225399 0.15327466 1.225 4289111980
-0.013895988 0.15327466 1.225 4289046187
-0.01157602 0.15339978 1.2260001 4289046187
-0.0092522502 0.15352491 1.2270001 4289046187
-0.0069190371 0.15352491 1.2270001 4289046187
-0.0045858235 0.15352491 1.2270001 4289046187
-0.0022526102 0.15352491 1.2270001 4289046187
8.0537255e-05 0.15339978 1.2260001 4288980394
0.0024079145 0.15314953 1.2240001 4288980394
0.0047315541 0.15302442 1.223 4289046187
0.0070513906 0.15289928 1.222 4289046187
0.0093750954 0.15289928 1.222 4289111980
0.011698801 0.15289928 1.222 4289046187
0.014022507 0.15289928 1.222 4288914601
0.016346212 0.15289928 1.222 4288848808
0.018669916 0.15289928 1.222 4288848808
0.020993622 0.15289928 1.222 4288848808
0.023317328 0.15289928 1.222 4288914601
0.025641033 0.15289928 1.222 4288914601
0.027941855 0.15277417 1.2210001 4288914601
0.030238874 0.15264904 1.22 4288914601
0.032585461 0.15277417 1.2210001 4288914601
0.034935854 0.15289928 1.222 4288914601
0.03725956 0.15289928 1.222 4288980393
0.039583266 0.15289928 1.222 4288914600
0.041906971 0.15289928 1.222 4288848807
0.044194479 0.15277417 1.2210001 4288848807
0.046516284 0.15277417 1.2210001 4288914601
0.048798092 0.15264904 1.22 4288914601
0.051076092 0.15252392 1.2190001 4288914601
0.053437896 0.15264904 1.22 4288980394
0.055712093 0.15252392 1.2190001 4288980394
0.0580777 0.15264904 1.22 4289046187
0.060397603 0.15264904 1.22 4289046187
0.062768914 0.15277417 1.2210001 4289046187
0.065090716 0.15277417 1.2210001 4288980140
0.067357309 0.15264904 1.22 4288980140
0.069677211 0.15264904 1.22 4288980140
0.071997114 0.15264904 1.22 4288980140
0.074377932 0.15277417 1.2210001 4288915117
0.07676255 0.15289928 1.222 4288783531
0.079086259 0.15289928 1.222 4288783531
0.081343338 0.15277417 1.2210001 4288849324
0.083596624 0.15264904 1.22 4288849324
0.085916527 0.15264904 1.22 4288783531
0.088236429 0.15264904 1.22 4288783531
0.090556331 0.15264904 1.22 4288849324
0.092876233 0.15264904 1.22 4288849324
0.095196135 0.15264904 1.22 4288783531
0.097436108 0.15252392 1.2190001 4288718251
0.09983594 0.15264904 1.22 4288652458
0.10207211 0.15252392 1.2190001 4288586665
0.10430448 0.15239879 1.2180001 4288586665
0.10662057 0.15239879 1.2180001 4288652458
0.10884724 0.15227368 1.217 4288718251
0.11107009 0.15214856 1.2160001 4288652458
0.11347563 0.15227368 1.217 4288652458
0.11578983 0.15227368 1.217 4288718251
0.11820107 0.15239879 1.2180001 4288784044
0.12051717 0.15239879 1.2180001 4288849837
0.12283327 0.15239879 1.2180001 4288849837
0.12514937 0.15239879 1.2180001 4288849837
0.12736081 0.15227368 1.217 4288849837
0.12956846 0.15214856 1.2160001 4288718251
0.13177231 0.15202343 1.215 4288784044
0.1340827 0.15202343 1.215 4288784044
0.1363931 0.15202343 1.215 4288849837
0.13881764 0.15214856 1.2160001 4288981423
0.14112994 0.15214856 1.2160001 4289047216
0.14344223 0.15214856 1.2160001 4289047216
0.14575453 0.15214856 1.2160001 4289113009
0.14806683 0.15214856 1.2160001 4289113009
0.15025546 0.15202343 1.215 4289178802
0.15256585 0.15202343 1.215 4289113009
0.15487625 0.15202343 1.215 4289047216
0.15718664 0.15202343 1.215 4289047216
0.15949704 0.15202343 1.215 4289178802
0.16180743 0.15202343 1.215 4289244595
0.16411783 0.15202343 1.215 4289178802
0.16642822 0.15202343 1.215 4288981423
0.16873862 0.15202343 1.215 4289113009
0.17104901 0.15202343 1.215 4289178802
0.17307404 0.15177318 1.2130001 4289178802
0.17538063 0.15177318 1.2130001 4289113009
0.17783371 0.15189832 1.2140001 4289113009
0.17984542 0.15164807 1.212 4289178802
0.18215011 0.15164807 1.212 4289310388
0.18415041 0.15139782 1.21 4289507252
0.18675949 0.15164807 1.212 4288981163
-0.36333549 0.15662026 1.233 4289836729
-0.35689205 0.15484193 1.2190001 4284705392
-0.35370144 0.15446086 1.2160001 4284179050
-0.35023323 0.15395276 1.212 4284442224
-0.3476415 0.15382574 1.2110001 4284573810
-0.34505352 0.15369871 1.21 4284639348
-0.34246936 0.1535717 1.2090001 4284441969
-0.34017038 0.1535717 1.2090001 4284244590
-0.33731246 0.15331765 1.207 4284113004
-0.33529484 0.15344468 1.2080001 4284178797
-0.33327341 0.1535717 1.2090001 4284179052
-0.33124819 0.15369871 1.21 4284244841
-0.32921919 0.15382574 1.2110001 4283981923
-0.32718632 0.15395276 1.212 4284441706
-0.32514969 0.15407978 1.2130001 4285231222
-0.3228431 0.15407978 1.2130001 4285954945
-0.32053652 0.15407978 1.2130001 4285757312
-0.31822991 0.15407978 1.2130001 4284441452
-0.31566286 0.15395276 1.212 4283521122
-0.31309965 0.15382574 1.2110001 4283916138
-0.31054023 0.15369871 1.21 4283850858
-0.30798459 0.1535717 1.2090001 4283982446
-0.30568561 0.1535717 1.2090001 4283982446
-0.30338663 0.1535717 1.2090001 4284047726
-0.30133668 0.15369871 1.21 4284245105
-0.29953006 0.15395276 1.212 4284178029
-0.29722536 0.15395276 1.212 4283585892
-0.29492065 0.15395276 1.212 4287665312
-0.29285741 0.15407978 1.2130001 4289441723
-0.29055083 0.15407978 1.2130001 4288980658
-0.28824425 0.15407978 1.2130001 4289243830
-0.28617337 0.15420683 1.2140001 4289178291
-0.28386489 0.15420683 1.2140001 4289309877
-0.28178832 0.15433384 1.215 4288980912
-0.27947792 0.15433384 1.215 4288915119
-0.27739567 0.15446086 1.2160001 4288915117
-0.27440467 0.15407978 1.2130001 4288915117
-0.27209809 0.15407978 1.2130001 4288980912
-0.26979151 0.15407978 1.2130001 4288980912
-0.2672644 0.15395276 1.212 4289111728
-0.26517832 0.15407978 1.2130001 4289045935
-0.26308843 0.15420683 1.2140001 4288980142
-0.26077995 0.15420683 1.2140001 4288914349
-0.25868437 0.15433384 1.215 4288783279
-0.25637397 0.15433384 1.215 4288717999
-0.25385448 0.15420683 1.2140001 4288849072
-0.251546 0.15420683 1.2140001 4288914865
-0.2494428 0.15433384 1.215 4288915119
-0.24733579 0.15446086 1.2160001 4288980912
-0.2450235 0.15446086 1.2160001 4288980912
-0.2429108 0.15458789 1.217 4288980912
-0.24039891 0.15446086 1.2160001 4288915117
-0.23808661 0.15446086 1.2160001 4288915117
-0.23577431 0.15446086 1.2160001 4288915117
-0.23346202 0.15446086 1.2160001 4288980910
-0.23095962 0.15433384 1.215 4289177773
-0.22883743 0.15446086 1.2160001 4289177773
-0.22671142 0.15458789 1.217 4289177773
-0.22421284 0.15446086 1.2160001 4289177773
-0.22190054 0.15446086 1.2160001 4289177260
-0.21958825 0.15446086 1.2160001 4289177260
-0.21745464 0.15458789 1.217 4289111980
-0.21496364 0.15446086 1.2160001 4289111980
-0.21282624 0.15458789 1.217 4289111980
-0.21051204 0.15458789 1.217 4289177773
-0.20819785 0.15458789 1.217 4289243566
-0.20571446 0.15446086 1.2160001 4289309359
-0.2032349 0.15433384 1.215 4289243566
-0.2009245 0.15433384 1.215 4289177773
-0.19861411 0.15433384 1.215 4289046701
-0.19630371 0.15433384 1.215 4288980908
-0.19415298 0.15446086 1.2160001 4288980908
-0.19184069 0.15446086 1.2160001 4288980908
-0.18952839 0.15446086 1.2160001 4288980908
-0.18737006 0.15458789 1.217 4288980908
-0.18520792 0.15471491 1.2180001 4289111726
-0.18289182 0.15471491 1.2180001 4289243312
-0.18057571 0.15471491 1.2180001 4289309105
-0.17825963 0.15471491 1.2180001 4289309105
-0.17579907 0.15458789 1.217 4289243312
-0.17348488 0.15458789 1.217 4289177519
-0.17131132 0.15471491 1.2180001 4289243312
-0.16899523 0.15471491 1.2180001 4289243312
-0.16667913 0.15471491 1.2180001 4289111726
-0.16436303 0.15471491 1.2180001 4289111726
-0.16204692 0.15471491 1.2180001 4289177519
-0.15986198 0.15484193 1.2190001 4289243312
-0.15754397 0.15484193 1.2190001 4289309105
-0.15522598 0.15484193 1.2190001 4289309105
-0.15303341 0.15496896 1.22 4289243312
-0.1507135 0.15496896 1.22 4289243312
-0.1483936 0.15496896 1.22 4289309359
-0.1460737 0.15496896 1.22 4289243566
-0.14363597 0.15484193 1.2190001 4289243566
-0.14131796 0.15484193 1.2190001 4289309359
-0.13899997 0.15484193 1.2190001 4289309359
-0.13679409 0.15496896 1.22 4289309359
-0.13447419 0.15496896 1.22 4289243566
-0.13204597 0.15484193 1.2190001 4289243566
-0.12972796 0.15484193 1.2190001 4289243566
-0.12751448 0.15496896 1.22 4289243566
-0.12519458 0.15496896 1.22 4289177773
-0.12267324 0.15471491 1.2180001 4289177773
-0.12025833 0.15458789 1.217 4289177773
-0.11794413 0.15458789 1.217 4289177773
-0.11572494 0.15471491 1.2180001 4289177773
-0.11350195 0.15484193 1.2190001 4289177773
-0.11127517 0.15496896 1.22 4289111980
-0.10904457 0.15509598 1.2210001 4289243566
-0.10672277 0.15509598 1.2210001 4289375152
-0.10440096 0.15509598 1.2210001 4289375152
-0.10207916 0.15509598 1.2210001 4289309359
-0.099757358 0.15509598 1.2210001 4289243566
-0.097435556 0.15509598 1.2210001 4289177773
-0.09519165 0.155223 1.222 4289177773
-0.092943937 0.15535003 1.223 4289111980
-0.090692423 0.15547705 1.2240001 4289309359
-0.088364914 0.15547705 1.2240001 4289375152
-0.086107701 0.15560406 1.225 4289243566
-0.083778284 0.15560406 1.225 4289177773
-0.081382394 0.15547705 1.2240001 4289243566
-0.079054885 0.15547705 1.2240001 4289243566
-0.076664686 0.15535003 1.223 4289243566
-0.074339084 0.15535003 1.223 4289111980
-0.071954593 0.155223 1.222 4289177773
-0.069630891 0.155223 1.222 4289177773
-0.067307182 0.155223 1.222 4289177773
-0.06498348 0.155223 1.222 4289177773
-0.06265977 0.155223 1.222 4289177773
-0.060336065 0.155223 1.222 4289177773
-0.058059834 0.15535003 1.223 4289177773
-0.055779796 0.15547705 1.2240001 4289243566
-0.053452287 0.15547705 1.2240001 4289309359
-0.051083013 0.15535003 1.223 4289309359
-0.04871754 0.155223 1.222 4289177773
-0.046317901 0.15496896 1.22 4289111980
-0.043961935 0.15484193 1.2190001 4289177773
-0.041678097 0.15496896 1.22 4289111980
-0.03939046 0.15509598 1.2210001 4289111980
-0.037099011 0.155223 1.222 4289177260
-0.034775306 0.155223 1.222 4289111467
-0.0324516 0.155223 1.222 4289177260
-0.030127896 0.155223 1.222 4289243053
-0.02780419 0.155223 1.222 4289308846
-0.025480485 0.155223 1.222 4289177260
-0.023156781 0.155223 1.222 4289111980
-0.020850122 0.15535003 1.223 4289177773
-0.018524515 0.15535003 1.223 4289243566
-0.016198907 0.15535003 1.223 4289177773
-0.013873301 0.15535003 1.223 4289046187
-0.011557137 0.15547705 1.2240001 4289046187
-0.0092371684 0.15560406 1.225 4289046187
-0.0069077583 0.15560406 1.225 4288980394
-0.0045746113 0.15547705 1.2240001 4288914601
-0.0022452667 0.15535003 1.223 4288914601
8.0274491e-05 0.155223 1.222 4288914601
0.0024039799 0.155223 1.222 4288914601
0.0047238166 0.15509598 1.2210001 4288914601
0.0070340792 0.15484193 1.2190001 4288980394
0.0093520805 0.15484193 1.2190001 4289046187
0.011670081 0.15484193 1.2190001 4289046187
0.013976607 0.15471491 1.2180001 4288980394
0.016292706 0.15471491 1.2180001 4288980394
0.018624082 0.15484193 1.2190001 4288848808
0.020942084 0.15484193 1.2190001 4288848808
0.023260085 0.15484193 1.2190001 4288848808
0.025578085 0.15484193 1.2190001 4288848808
0.027896086 0.15484193 1.2190001 4288848808
0.030214086 0.15484193 1.2190001 4288914601
0.032558776 0.15496896 1.22 4288914601
0.034907266 0.15509598 1.2210001 4288914601
0.037229069 0.15509598 1.2210001 4288848807
0.039550871 0.15509598 1.2210001 4288848807
0.041872676 0.15509598 1.2210001 4288848807
0.044158287 0.15496896 1.22 4288848807
0.04647819 0.15496896 1.22 4288914601
0.048758093 0.15484193 1.2190001 4288914601
0.051034193 0.15471491 1.2180001 4288914601
0.053350292 0.15471491 1.2180001 4288980394
0.055666391 0.15471491 1.2180001 4288914601
0.057982489 0.15471491 1.2180001 4288980394
0.060348097 0.15484193 1.2190001 4288980394
0.062666103 0.15484193 1.2190001 4288980394
0.064984098 0.15484193 1.2190001 4288980140
0.067246892 0.15471491 1.2180001 4288980140
0.069505878 0.15458789 1.217 4289045933
0.071820073 0.15458789 1.217 4289045933
0.074134268 0.15458789 1.217 4288783531
0.076511286 0.15471491 1.2180001 4288651945
0.078827389 0.15471491 1.2180001 4288586152
0.081143484 0.15471491 1.2180001 4288717738
0.083459586 0.15471491 1.2180001 4288783531
0.085705258 0.15458789 1.217 4288783531
0.088019453 0.15458789 1.217 4288849324
0.090333655 0.15458789 1.217 4288915117
0.092647851 0.15458789 1.217 4288783531
0.094962046 0.15458789 1.217 4288717738
0.097276248 0.15458789 1.217 4288652458
0.099590443 0.15458789 1.217 4288586665
0.10182091 0.15446086 1.2160001 4288652458
0.1041332 0.15446086 1.2160001 4288652458
0.10635796 0.15433384 1.215 4288718251
0.10857891 0.15420683 1.2140001 4288784044
0.11079606 0.15407978 1.2130001 4288784044
0.1131959 0.15420683 1.2140001 4288652458
0.11550439 0.15420683 1.2140001 4288652458
0.11800698 0.15446086 1.2160001 4288784044
0.12041822 0.15458789 1.217 4288849837
0.12273242 0.15458789 1.217 4288849837
0.12494387 0.15446086 1.2160001 4288784044
0.12715152 0.15433384 1.215 4288849837
0.12946191 0.15433384 1.215 4288784044
0.13177231 0.15433384 1.215 4288849837
0.1340827 0.15433384 1.215 4288849837
0.1363931 0.15433384 1.215 4288915630
0.13881764 0.15446086 1.2160001 4288981423
0.14112994 0.15446086 1.2160001 4289047216
0.14332429 0.15433384 1.215 4289113009
0.14563467 0.15433384 1.215 4289113009
0.14782329 0.15420683 1.2140001 4289047216
0.15013179 0.15420683 1.2140001 4289047216
0.15244028 0.15420683 1.2140001 4289047216
0.15487625 0.15433384 1.215 4288981423
0.15718664 0.15433384 1.215 4289047216
0.15949704 0.15433384 1.215 4289178802
0.16167425 0.15420683 1.2140001 4289178802
0.16398275 0.15420683 1.2140001 4289113009
0.16615427 0.15407978 1.2130001 4289047216
0.16846086 0.15407978 1.2130001 4289113009
0.17062666 0.15395276 1.212 4289113009
0.17264599 0.15369871 1.21 4289047216
0.17494687 0.15369871 1.21 4289047216
0.17754073 0.15395276 1.212 4289047216
0.17969704 0.15382574 1.2110001 4289047216
0.18184952 0.15369871 1.21 4289113009
0.18384604 0.15344468 1.2080001 4289309873
0.1864513 0.15369871 1.21 4289441459
0.18953218 0.15433384 1.215 4289507507
0.19263203 0.15496896 1.22 4288915366
0.19495194 0.15496896 1.22 4284573280
-0.36068341 0.15780456 1.2240001 4289178800
-0.35601372 0.15677316 1.2160001 4283586911
-0.3528288 0.15638639 1.2130001 4283784292
-0.34936631 0.15587069 1.2090001 4284179565
-0.34678027 0.15574177 1.2080001 4284179310
-0.34448317 0.15574177 1.2080001 4283981933
-0.34190282 0.15561284 1.207 4283850347
-0.33960763 0.15561284 1.207 4284047213
-0.33731246 0.15561284 1.207 4284310385
-0.33501726 0.15561284 1.207 4284310383
-0.33327341 0.15587069 1.2090001 4284179052
-0.33124819 0.15599962 1.21 4284244325
-0.32921919 0.15612854 1.2110001 4285165426
-0.3274563 0.15638639 1.2130001 4286217602
-0.32541776 0.15651532 1.2140001 4286875532
-0.32310927 0.15651532 1.2140001 4287994013
-0.32053652 0.15638639 1.2130001 4289507767
-0.31796756 0.15625747 1.212 4288323239
-0.31540245 0.15612854 1.2110001 4284310636
-0.31284112 0.15599962 1.21 4284179565
-0.31002691 0.15574177 1.2080001 4284245615
-0.30772984 0.15574177 1.2080001 4283983214
-0.30543277 0.15574177 1.2080001 4283982444
-0.30288473 0.15561284 1.207 4284179312
-0.30108762 0.15587069 1.2090001 4284113519
-0.29903579 0.15599962 1.21 4283783271
-0.2967349 0.15599962 1.21 4283454306
-0.29443401 0.15599962 1.21 4288980659
-0.29237458 0.15612854 1.2110001 4289178038
-0.29007179 0.15612854 1.2110001 4289243830
-0.28776899 0.15612854 1.2110001 4289309623
-0.2857019 0.15625747 1.212 4289178291
-0.28339723 0.15625747 1.212 4289375670
-0.28132445 0.15638639 1.2130001 4289178289
-0.27901787 0.15638639 1.2130001 4289046703
-0.27693939 0.15651532 1.2140001 4289111726
-0.27440467 0.15638639 1.2130001 4289111726
-0.27187377 0.15625747 1.212 4289177519
-0.26956907 0.15625747 1.212 4289177519
-0.2672644 0.15625747 1.212 4289177521
-0.26517832 0.15638639 1.2130001 4289177521
-0.26308843 0.15651532 1.2140001 4289111728
-0.26077995 0.15651532 1.2140001 4289111728
-0.25868437 0.15664424 1.215 4288849326
-0.25637397 0.15664424 1.215 4288980912
-0.25385448 0.15651532 1.2140001 4289046705
-0.251546 0.15651532 1.2140001 4289112498
-0.2494428 0.15664424 1.215 4289046705
-0.24733579 0.15677316 1.2160001 4288980912
-0.2450235 0.15677316 1.2160001 4289046703
-0.2427112 0.15677316 1.2160001 4289178289
-0.24039891 0.15677316 1.2160001 4289177519
-0.23789081 0.15664424 1.215 4289177519
-0.23558041 0.15664424 1.215 4289111726
-0.23327002 0.15664424 1.215 4289177519
-0.23095962 0.15664424 1.215 4289243566
-0.22883743 0.15677316 1.2160001 4289309359
-0.22652513 0.15677316 1.2160001 4289243566
-0.22421284 0.15677316 1.2160001 4289177773
-0.22190054 0.15677316 1.2160001 4289177260
-0.21958825 0.15677316 1.2160001 4289177260
-0.21727595 0.15677316 1.2160001 4289111980
-0.21496364 0.15677316 1.2160001 4289111980
-0.21265136 0.15677316 1.2160001 4289046187
-0.21051204 0.1569021 1.217 4289111980
-0.20819785 0.1569021 1.217 4289177773
-0.20571446 0.15677316 1.2160001 4289243566
-0.2032349 0.15664424 1.215 4289177773
-0.2009245 0.15664424 1.215 4289111980
-0.19861411 0.15664424 1.215 4288980908
-0.19630371 0.15664424 1.215 4288915115
-0.19415298 0.15677316 1.2160001 4288915115
-0.19184069 0.15677316 1.2160001 4288915115
-0.18952839 0.15677316 1.2160001 4288915115
-0.1872161 0.15677316 1.2160001 4288980908
-0.1849038 0.15677316 1.2160001 4289177519
-0.18259151 0.15677316 1.2160001 4289243312
-0.18042748 0.1569021 1.217 4289309105
-0.17811328 0.1569021 1.217 4289243312
-0.17579907 0.1569021 1.217 4289177519
-0.17362742 0.15703101 1.2180001 4289177519
-0.17131132 0.15703101 1.2180001 4289243312
-0.16899523 0.15703101 1.2180001 4289309105
-0.16654229 0.1569021 1.217 4289177519
-0.1642281 0.1569021 1.217 4289177519
-0.16191389 0.1569021 1.217 4289309105
-0.15959969 0.1569021 1.217 4289374898
-0.1572855 0.1569021 1.217 4289374898
-0.15509863 0.15703101 1.2180001 4289374898
-0.15278253 0.15703101 1.2180001 4289374898
-0.15058997 0.15715994 1.2190001 4289309105
-0.14827198 0.15715994 1.2190001 4289177773
-0.14595397 0.15715994 1.2190001 4289243566
-0.14351813 0.15703101 1.2180001 4289309359
-0.14120203 0.15703101 1.2180001 4289309359
-0.13888593 0.15703101 1.2180001 4289309359
-0.13656984 0.15703101 1.2180001 4289243566
-0.13425374 0.15703101 1.2180001 4289243566
-0.13193764 0.15703101 1.2180001 4289243566
-0.12962154 0.15703101 1.2180001 4289243566
-0.12730543 0.15703101 1.2180001 4289243566
-0.12488673 0.1569021 1.217 4289243566
-0.12247181 0.15677316 1.2160001 4289177773
-0.12015951 0.15677316 1.2160001 4289177773
-0.11784722 0.15677316 1.2160001 4289177773
-0.11562993 0.1569021 1.217 4289177773
-0.11340884 0.15703101 1.2180001 4289177773
-0.11118396 0.15715994 1.2190001 4289243566
-0.10895526 0.15728888 1.22 4289243566
-0.10654795 0.15715994 1.2190001 4289243566
-0.10422995 0.15715994 1.2190001 4289243566
-0.10191195 0.15715994 1.2190001 4289309359
-0.099512249 0.15703101 1.2180001 4289243566
-0.09727595 0.15715994 1.2190001 4289243566
-0.095035851 0.15728888 1.22 4289243566
-0.092791945 0.15741779 1.2210001 4289243566
-0.090618327 0.15767565 1.223 4289375152
-0.088292725 0.15767565 1.223 4289440945
-0.085967116 0.15767565 1.223 4289243566
-0.083641507 0.15767565 1.223 4289177773
-0.081315905 0.15767565 1.223 4289177773
-0.078925706 0.15754671 1.222 4289243566
-0.076539323 0.15741779 1.2210001 4289309359
-0.074217513 0.15741779 1.2210001 4289111980
-0.071895711 0.15741779 1.2210001 4289111980
-0.069573909 0.15741779 1.2210001 4289111980
-0.067252107 0.15741779 1.2210001 4289111980
-0.064930297 0.15741779 1.2210001 4289111980
-0.062608495 0.15741779 1.2210001 4289177773
-0.060237315 0.15728888 1.22 4289177773
-0.058012363 0.15754671 1.222 4289243566
-0.055734225 0.15767565 1.223 4289177773
-0.053408619 0.15767565 1.223 4289309359
-0.051041245 0.15754671 1.222 4289309359
-0.048637804 0.15728888 1.22 4289177773
-0.046279937 0.15715994 1.2190001 4289111980
-0.043925874 0.15703101 1.2180001 4289111980
-0.041609775 0.15703101 1.2180001 4289111980
-0.039325934 0.15715994 1.2190001 4289046187
-0.037038293 0.15728888 1.22 4289111467
-0.034746852 0.15741779 1.2210001 4289045674
-0.032425046 0.15741779 1.2210001 4289111467
-0.03010324 0.15741779 1.2210001 4289177260
-0.027758684 0.15728888 1.22 4289177260
-0.025438782 0.15728888 1.22 4289111467
-0.02313783 0.15741779 1.2210001 4288980394
-0.020816026 0.15741779 1.2210001 4289046187
-0.018494222 0.15741779 1.2210001 4289177773
-0.016172418 0.15741779 1.2210001 4289111980
-0.013861958 0.15754671 1.222 4289046187
-0.011547695 0.15767565 1.223 4289046187
-0.0092220875 0.15767565 1.223 4288980394
-0.0068964809 0.15767565 1.223 4288980394
-0.0045708739 0.15767565 1.223 4288848808
-0.0022434308 0.15754671 1.222 4288783015
8.0208796e-05 0.15741779 1.2210001 4288848808
0.0024000453 0.15728888 1.22 4288783015
0.0047199475 0.15728888 1.22 4288783015
0.0070283092 0.15703101 1.2180001 4288783015
0.0093444092 0.15703101 1.2180001 4288848808
0.011660508 0.15703101 1.2180001 4288914601
0.013953657 0.15677316 1.2160001 4288914601
0.016265953 0.15677316 1.2160001 4288848808
0.018593526 0.1569021 1.217 4288914601
0.020907724 0.1569021 1.217 4288914601
0.023221921 0.1569021 1.217 4288848808
0.025536118 0.1569021 1.217 4288848808
0.027850317 0.1569021 1.217 4288848808
0.030164514 0.1569021 1.217 4288914601
0.032532088 0.15715994 1.2190001 4288914601
0.034878679 0.15728888 1.22 4288980394
0.037198581 0.15728888 1.22 4288848807
0.039518483 0.15728888 1.22 4288914600
0.041838385 0.15728888 1.22 4288914600
0.044122092 0.15715994 1.2190001 4288914600
0.046440091 0.15715994 1.2190001 4288914601
0.048678096 0.1569021 1.217 4288848808
0.050950393 0.15677316 1.2160001 4288848808
0.05330649 0.1569021 1.217 4288914601
0.055574987 0.15677316 1.2160001 4288848808
0.057934888 0.1569021 1.217 4288848808
0.060249086 0.1569021 1.217 4288914601
0.062614694 0.15703101 1.2180001 4288914601
0.064930789 0.15703101 1.2180001 4288848554
0.067246892 0.15703101 1.2180001 4288848554
0.069505878 0.1569021 1.217 4288914347
0.071820073 0.1569021 1.217 4288980140
0.074134268 0.1569021 1.217 4288848554
0.076511286 0.15703101 1.2180001 4288651175
0.078827389 0.15703101 1.2180001 4288651175
0.081143484 0.15703101 1.2180001 4288716968
0.083459586 0.15703101 1.2180001 4288717738
0.085705258 0.1569021 1.217 4288717738
0.088019453 0.1569021 1.217 4288783531
0.090333655 0.1569021 1.217 4288849324
0.092647851 0.1569021 1.217 4288783531
0.094962046 0.1569021 1.217 4288717738
0.097276248 0.1569021 1.217 4288651945
0.099590443 0.1569021 1.217 4288651945
0.10182091 0.15677316 1.2160001 4288718251
0.1041332 0.15677316 1.2160001 4288784044
0.10635796 0.15664424 1.215 4288784044
0.10857891 0.15651532 1.2140001 4288718251
0.11079606 0.15638639 1.2130001 4288915117
0.1131959 0.15651532 1.2140001 4288783531
0.11550439 0.15651532 1.2140001 4288717738
0.11800698 0.15677316 1.2160001 4288783531
0.12041822 0.1569021 1.217 4288849324
0.12273242 0.1569021 1.217 4288783531
0.12494387 0.15677316 1.2160001 4288783531
0.12715152 0.15664424 1.215 4288783531
0.12946191 0.15664424 1.215 4288849324
0.13177231 0.15664424 1.215 4288849324
0.1340827 0.15664424 1.215 4288915117
0.1363931 0.15664424 1.215 4288980910
0.1387035 0.15664424 1.215 4288980910
0.14089781 0.15651532 1.2140001 4289046703
0.14308836 0.15638639 1.2130001 4289046703
0.14539494 0.15638639 1.2130001 4289112496
0.14757976 0.15625747 1.212 4288980910
0.15000813 0.15638639 1.2130001 4288980910
0.15231472 0.15638639 1.2130001 4288980910
0.1546213 0.15638639 1.2130001 4288915117
0.1569279 0.15638639 1.2130001 4288980910
0.15923449 0.15638639 1.2130001 4289178289
0.16154109 0.15638639 1.2130001 4289112496
0.16371259 0.15625747 1.212 4288980910
0.16574332 0.15599962 1.21 4289046703
0.16804421 0.15599962 1.21 4289046703
0.17020433 0.15587069 1.2090001 4288980910
0.17236063 0.15574177 1.2080001 4288980910
0.17451312 0.15561284 1.207 4288980910
0.17666182 0.15548392 1.2060001 4289046703
0.17895511 0.15548392 1.2060001 4289046703
0.18139866 0.15561284 1.207 4289046703
0.18369384 0.15561284 1.207 4288849324
0.18614313 0.15574177 1.2080001 4289441459
0.18890819 0.15612854 1.2110001 4289507507
0.19184256 0.15664424 1.215 4289375919
0.19495194 0.15728888 1.22 4284836454
-0.3609781 0.16026291 1.225 4288126114
-0.35864869 0.16026291 1.225 4283784292
-0.35166532 0.15816969 1.2090001 4284508017
-0.34849942 0.15777721 1.2060001 4284113517
-0.34591907 0.15764639 1.205 4284047724
-0.34334251 0.15751554 1.2040001 4284113519
-0.34105304 0.15751554 1.2040001 4284245105
-0.33904493 0.15764639 1.205 4284244592
-0.33675355 0.15764639 1.205 4284047213
-0.33473974 0.15777721 1.2060001 4284113004
-0.33299777 0.15803887 1.2080001 4284376429
-0.33124819 0.1583005 1.21 4284441703
-0.32921919 0.15843134 1.2110001 4285889403
-0.32772624 0.15882382 1.2140001 4285691511
-0.32595387 0.15908547 1.2160001 4283388758
-0.32337543 0.15895465 1.215 4283191379
-0.32053652 0.15869299 1.2130001 4287862427
-0.31770524 0.15843134 1.2110001 4289705146
-0.31488153 0.15816969 1.2090001 4284836980
-0.31232402 0.15803887 1.2080001 4283916393
-0.30951366 0.15777721 1.2060001 4284245615
-0.30722037 0.15777721 1.2060001 4283917421
-0.30492708 0.15777721 1.2060001 4283654249
-0.30238286 0.15764639 1.205 4283981933
-0.30034053 0.15777721 1.2060001 4283850347
-0.29854152 0.15803887 1.2080001 4283784041
-0.29624441 0.15803887 1.2080001 4284243822
-0.29394734 0.15803887 1.2080001 4289770175
-0.29213312 0.1583005 1.21 4288980659
-0.28983223 0.1583005 1.21 4289507002
-0.28753135 0.1583005 1.21 4289243830
-0.28546619 0.15843134 1.2110001 4288915119
-0.28316343 0.15843134 1.2110001 4289375670
-0.28086063 0.15843134 1.2110001 4289375668
-0.27878785 0.15856217 1.212 4289178289
-0.27648315 0.15856217 1.212 4289177519
-0.27395228 0.15843134 1.2110001 4289243312
-0.27164948 0.15843134 1.2110001 4289243312
-0.26934668 0.15843134 1.2110001 4289309105
-0.26704389 0.15843134 1.2110001 4289309107
-0.26474112 0.15843134 1.2110001 4289309107
-0.26265502 0.15856217 1.212 4289309107
-0.26035032 0.15856217 1.212 4289309107
-0.25825855 0.15869299 1.2130001 4289046705
-0.25595194 0.15869299 1.2130001 4289244084
-0.25343624 0.15856217 1.212 4289309877
-0.25113156 0.15856217 1.212 4289244084
-0.24903218 0.15869299 1.2130001 4289046705
-0.24672559 0.15869299 1.2130001 4288980912
-0.2446205 0.15882382 1.2140001 4289046703
-0.24211241 0.15869299 1.2130001 4289178289
-0.23980582 0.15869299 1.2130001 4289309105
-0.23749922 0.15869299 1.2130001 4289243312
-0.23519263 0.15869299 1.2130001 4289243312
-0.23288605 0.15869299 1.2130001 4289243312
-0.23057945 0.15869299 1.2130001 4289309359
-0.22827286 0.15869299 1.2130001 4289309359
-0.22596626 0.15869299 1.2130001 4289177773
-0.22365968 0.15869299 1.2130001 4289111980
-0.22135308 0.15869299 1.2130001 4289177260
-0.21904649 0.15869299 1.2130001 4289177260
-0.21691859 0.15882382 1.2140001 4289046187
-0.2146101 0.15882382 1.2140001 4289046187
-0.2123016 0.15882382 1.2140001 4288980394
-0.21016608 0.15895465 1.215 4288980394
-0.20785569 0.15895465 1.215 4289046187
-0.20554529 0.15895465 1.215 4289046187
-0.20306763 0.15882382 1.2140001 4289111980
-0.20075914 0.15882382 1.2140001 4289111980
-0.19828717 0.15869299 1.2130001 4288915115
-0.19598058 0.15869299 1.2130001 4288915115
-0.19367398 0.15869299 1.2130001 4288915115
-0.19152516 0.15882382 1.2140001 4288915115
-0.18906081 0.15869299 1.2130001 4288980908
-0.18675421 0.15869299 1.2130001 4288980908
-0.18444762 0.15869299 1.2130001 4289111726
-0.18229119 0.15882382 1.2140001 4289111726
-0.18013094 0.15895465 1.215 4289111726
-0.17796691 0.15908547 1.2160001 4289045933
-0.17579907 0.1592163 1.217 4288980140
-0.17348488 0.1592163 1.217 4288980140
-0.17103003 0.15908547 1.2160001 4289045933
-0.16885649 0.1592163 1.217 4289177519
-0.16640544 0.15908547 1.2160001 4289177519
-0.16395819 0.15895465 1.215 4289243312
-0.16178085 0.15908547 1.2160001 4289243312
-0.1593374 0.15895465 1.215 4289309105
-0.15702701 0.15895465 1.215 4289309105
-0.15484396 0.15908547 1.2160001 4289243312
-0.15253165 0.15908547 1.2160001 4289243312
-0.15021937 0.15908547 1.2160001 4289177519
-0.14790706 0.15908547 1.2160001 4289111980
-0.14559478 0.15908547 1.2160001 4289243566
-0.14328247 0.15908547 1.2160001 4289309359
-0.14108612 0.1592163 1.217 4289309359
-0.13877192 0.1592163 1.217 4289243566
-0.13645771 0.1592163 1.217 4289177773
-0.13414352 0.1592163 1.217 4289177773
-0.13182932 0.1592163 1.217 4289243566
-0.1294087 0.15908547 1.2160001 4289243566
-0.12699188 0.15895465 1.215 4289243566
-0.12457887 0.15882382 1.2140001 4289177773
-0.12227038 0.15882382 1.2140001 4289177773
-0.11996189 0.15882382 1.2140001 4289177773
-0.1177503 0.15895465 1.215 4289177773
-0.11553492 0.15908547 1.2160001 4289177773
-0.11331574 0.1592163 1.217 4289177773
-0.11100154 0.1592163 1.217 4289375152
-0.10877664 0.15934713 1.2180001 4289309359
-0.10646055 0.15934713 1.2180001 4289177773
-0.10405894 0.1592163 1.217 4289177773
-0.10174475 0.1592163 1.217 4289177773
-0.099512249 0.15934713 1.2180001 4289243566
-0.097196154 0.15934713 1.2180001 4289243566
-0.094957948 0.15947795 1.2190001 4289243566
-0.092715949 0.15960878 1.22 4289309359
-0.090544239 0.15987043 1.222 4289440945
-0.088292725 0.16000126 1.223 4289440945
-0.085896827 0.15987043 1.222 4289309359
-0.083573118 0.15987043 1.222 4289111980
-0.081182927 0.1597396 1.2210001 4289177773
-0.078796536 0.15960878 1.22 4289243566
-0.076476634 0.15960878 1.22 4289309359
-0.074156731 0.15960878 1.22 4289243566
-0.071895711 0.1597396 1.2210001 4289177773
-0.069516927 0.15960878 1.22 4289177773
-0.067197025 0.15960878 1.22 4289177773
-0.06482394 0.15947795 1.2190001 4289177773
-0.062454663 0.15934713 1.2180001 4289177773
-0.060138568 0.15934713 1.2180001 4289243566
-0.057869941 0.15947795 1.2190001 4289243566
-0.05559751 0.15960878 1.22 4289177773
-0.053277608 0.15960878 1.22 4289309359
-0.050957706 0.15960878 1.22 4289309359
-0.048597939 0.15947795 1.2190001 4289111980
-0.046241973 0.15934713 1.2180001 4289046187
-0.043889806 0.1592163 1.217 4289046187
-0.041575611 0.1592163 1.217 4289046187
-0.039293677 0.15934713 1.2180001 4288980394
-0.036977578 0.15934713 1.2180001 4289111467
-0.034689933 0.15947795 1.2190001 4288979881
-0.032371935 0.15947795 1.2190001 4289045674
-0.030078586 0.15960878 1.22 4289111467
-0.027735932 0.15947795 1.2190001 4289111467
-0.025417931 0.15947795 1.2190001 4288979881
-0.023099929 0.15947795 1.2190001 4288914601
-0.020781929 0.15947795 1.2190001 4288980394
-0.018463928 0.15947795 1.2190001 4289111980
-0.016159171 0.15960878 1.22 4289046187
-0.013839271 0.15960878 1.22 4289046187
-0.01152881 0.1597396 1.2210001 4288980394
-0.0092070065 0.1597396 1.2210001 4288980394
-0.0068852026 0.1597396 1.2210001 4288914601
-0.0045596613 0.15960878 1.22 4288848808
-0.0022379232 0.15947795 1.2190001 4288717222
8.0011727e-05 0.15934713 1.2180001 4288914601
0.0023961109 0.15934713 1.2180001 4288848808
0.0047083413 0.1592163 1.217 4288783015
0.0070225392 0.1592163 1.217 4288783015
0.009336737 0.1592163 1.217 4288848808
0.011641361 0.15908547 1.2160001 4288848808
0.013942181 0.15895465 1.215 4288848808
0.016252577 0.15895465 1.215 4288848808
0.018547691 0.15882382 1.2140001 4288848808
0.020873366 0.15895465 1.215 4288783015
0.023183759 0.15895465 1.215 4288783015
0.025494155 0.15895465 1.215 4288717222
0.02780455 0.15895465 1.215 4288717222
0.030139729 0.15908547 1.2160001 4288783015
0.032505397 0.15934713 1.2180001 4288848808
0.034821499 0.15934713 1.2180001 4288914601
0.037137598 0.15934713 1.2180001 4288783014
0.039453696 0.15934713 1.2180001 4288848807
0.041769795 0.15934713 1.2180001 4288848807
0.044085894 0.15934713 1.2180001 4288848807
0.046363898 0.1592163 1.217 4288783015
0.048638098 0.15908547 1.2160001 4288651429
0.050908491 0.15895465 1.215 4288585636
0.053262688 0.15908547 1.2160001 4288585636
0.055529281 0.15895465 1.215 4288717222
0.057839677 0.15895465 1.215 4288717222
0.060199577 0.15908547 1.2160001 4288717222
0.062511876 0.15908547 1.2160001 4288651429
0.06487748 0.1592163 1.217 4288585382
0.067136467 0.15908547 1.2160001 4288585382
0.069448762 0.15908547 1.2160001 4288585382
0.071761057 0.15908547 1.2160001 4288651175
0.074073352 0.15908547 1.2160001 4288980140
0.07644847 0.1592163 1.217 4288782761
0.078697942 0.15908547 1.2160001 4288651175
0.081010245 0.15908547 1.2160001 4288716968
0.08332254 0.15908547 1.2160001 4288651945
0.085634835 0.15908547 1.2160001 4288651945
0.08794713 0.15908547 1.2160001 4288651945
0.090259425 0.15908547 1.2160001 4288717738
0.09249559 0.15895465 1.215 4288849324
0.094727956 0.15882382 1.2140001 4288717738
0.097036451 0.15882382 1.2140001 4288586152
0.099344939 0.15882382 1.2140001 4288586152
0.1015697 0.15869299 1.2130001 4288652458
0.10379066 0.15856217 1.212 4288652458
0.10609535 0.15856217 1.212 4288586665
0.1083106 0.15843134 1.2110001 4288455079
