# .PCD v0.7 - Point Cloud Data file format
VERSION 0.7
FIELDS x y z intensity
SIZE 4 4 4 4
TYPE F F F F
COUNT 1 1 1 1
WIDTH 1104
HEIGHT 1
VIEWPOINT 0 0 0 1 0 0 0
POINTS 1104
DATA ascii
0.056877282 0.21648993 1.0863334 0.47030514
0.04444826 0.22461915 1.1112502 0.47030514
0.060333181 0.21782197 1.0788751 0.47030514
0.046215694 0.22504967 1.103 0.47030514
0.054011296 0.21949264 1.0910001 0.47030514
0.049828958 0.22510387 1.0944546 0.47030514
0.054011296 0.22156726 1.0910001 0.47030514
0.055931676 0.22302562 1.0879999 0.47030514
0.053409018 0.22616668 1.0872 0.47030514
0.058963779 0.22506391 1.0786427 0.47030514
0.040774424 0.23172721 1.1098572 0.47030514
0.042431582 0.23277059 1.1028 0.47030514
0.047854912 0.23102996 1.0926001 0.47030514
0.043786317 0.23362121 1.0947144 0.47030514
0.050215993 0.23231985 1.0858573 0.47030514
0.036877334 0.23512921 1.1060001 0.47030514
0.051385302 0.23358306 1.0794287 0.47030514
0.058157507 0.23119622 1.077 0.47030514
0.034791257 0.23563655 1.0953333 0.47030514
0.035200153 0.23515178 1.0866667 0.47030514
0.058220666 0.2351297 1.070889 0.47030514
0.035922945 0.23260373 1.1090001 0.43810952
0.042410281 0.23606522 1.086125 0.43810952
0.031782709 0.24131121 1.0935 0.43810952
0.035197742 0.24051118 1.0866001 0.43810952
0.036077105 0.23619944 1.082 0.43810952
0.052511085 0.23583187 1.0710001 0.43810952
0.036077105 0.23825693 1.082 0.43810952
0.041321352 0.24090859 1.0846667 0.43810952
0.045272946 0.24100764 1.0805001 0.43810952
0.047653951 0.23996922 1.0786 0.43810952
0.050745204 0.2409891 1.0707778 0.43810952
0.034531821 0.24966985 1.1021112 0.43810952
0.0365601 0.24666202 1.0965 0.43810952
0.040466756 0.24986596 1.095 0.43810952
0.043760251 0.24874142 1.0867144 0.43810952
0.045335796 0.2464869 1.082 0.43810952
0.050787609 0.24886355 1.0798 0.43810952
0.03432513 0.25726771 1.1085 0.43810952
0.036992762 0.25635216 1.1032 0.43810952
0.04131221 0.25537008 1.0954001 0.43810952
0.048824608 0.25159717 1.0833335 0.43810952
0.044868995 0.25459442 1.0873334 0.43810952
0.05106426 0.25684214 1.0871111 0.43810952
0.0408969 0.25918972 1.1010001 0.43810952
0.040392704 0.26589352 1.1095556 0.43810952
0.043457229 0.26269507 1.1040001 0.43810952
0.048605997 0.26031366 1.094 0.43810952
0.048731834 0.2655341 1.103 0.43810952
0.049001902 0.26194167 1.095 0.43810952
0.050326359 0.27039933 1.1077143 0.43810952
0.048685852 0.27411482 1.1035 0.43810952
-0.14172128 0.081912428 1.19075 0.15674357
-0.14989808 0.081971169 1.1898572 0.15674357
-0.13414118 0.082020603 1.1905715 0.15674357
-0.12596372 0.082284443 1.1897143 0.15674357
-0.11832101 0.082040057 1.1908571 0.15674357
-0.10981996 0.082254849 1.1916251 0.15674357
-0.10242483 0.082794085 1.1912501 0.15674357
-0.1496466 0.085750826 1.1930001 0.15674357
-0.1428802 0.085774787 1.1933334 0.15674357
-0.14194706 0.08916679 1.1982223 0.15674357
-0.13412499 0.089301467 1.1987501 0.15674357
-0.13268846 0.085786767 1.1935 0.15674357
-0.12572029 0.08567895 1.1920002 0.15674357
-0.11791907 0.085774787 1.1933334 0.15674357
-0.11041737 0.085822709 1.194 0.15674357
-0.10997047 0.088758603 1.1985714 0.15674357
-0.10150383 0.086372361 1.19375 0.15674357
-0.12576059 0.089291923 1.1970001 0.15674357
-0.11777014 0.08972384 1.1984285 0.15674357
-0.10301044 0.089861855 1.1994002 0.15674357
-0.10972461 0.091044784 1.2030001 0.15674357
-0.14277568 0.093254782 1.202 0.15674357
-0.14179739 0.09546534 1.20825 0.15674357
-0.13498907 0.09520185 1.2073334 0.15674357
-0.1313473 0.093254782 1.202 0.15674357
-0.12556407 0.09320306 1.2013334 0.15674357
-0.11870959 0.09320306 1.2013334 0.15674357
-0.11820003 0.095425606 1.2077501 0.15674357
-0.10978478 0.093384087 1.2036667 0.15674357
-0.10282771 0.095559858 1.2080001 0.15674357
-0.10043561 0.09320306 1.2013334 0.15674357
-0.12636477 0.096096851 1.2090001 0.15674357
-0.11505986 0.096255824 1.2110001 0.15674357
-0.11045428 0.096255817 1.2110001 0.15674357
-0.14723365 0.099291094 1.22 0.15674357
-0.14135724 0.099236846 1.2193334 0.15674357
-0.13552296 0.099209711 1.2190001 0.15674357
-0.13193764 0.099128321 1.2180001 0.15674357
-0.12962154 0.099128321 1.2180001 0.15674357
-0.12512554 0.099236839 1.2193334 0.15674357
-0.11823487 0.099291094 1.22 0.15674357
-0.11007103 0.099250406 1.2195001 0.15674357
-0.14203189 0.16013022 1.2151874 0.15447387
-0.13414329 0.16043368 1.2150909 0.15447387
-0.11777897 0.16052195 1.2129 0.15447387
-0.10945467 0.16037235 1.2152668 0.15447387
-0.12567373 0.16105427 1.2134167 0.15447387
-0.14209497 0.16808105 1.2059168 0.15447387
-0.13446902 0.16905013 1.2071539 0.15447387
-0.13359113 0.16547626 1.212 0.15447387
-0.12667833 0.16547626 1.212 0.15447387
-0.12196822 0.16533974 1.2110001 0.15447387
-0.11795817 0.16855642 1.2076668 0.15447387
-0.10941358 0.1655104 1.2122501 0.15447387
-0.12628369 0.16955316 1.2082224 0.15447387
-0.11023112 0.1696012 1.2085557 0.15447387
-0.15060829 0.1776263 1.2006668 0.15447387
-0.14863399 0.17456563 1.2031667 0.15447387
-0.14403825 0.17339781 1.2030001 0.15447387
-0.14153808 0.17689306 1.1995835 0.15447387
-0.13431269 0.17686282 1.1997273 0.15447387
-0.13260037 0.17339782 1.2030001 0.15447387
-0.12573764 0.17339782 1.2030001 0.15447387
-0.11732112 0.17530052 1.2035002 0.15447387
-0.10982658 0.1758462 1.2041112 0.15447387
-0.10184398 0.17590302 1.2045002 0.15447387
-0.12620479 0.17766656 1.1995454 0.15447387
-0.11826309 0.17914964 1.2006668 0.15447387
-0.10951179 0.17991094 1.2006668 0.15447387
-0.10154899 0.17996088 1.2010001 0.15447387
-0.15069576 0.18421565 1.1973333 0.15447387
-0.14535275 0.1813342 1.1950001 0.15447387
-0.14181314 0.18414202 1.1916925 0.15447387
-0.13488919 0.18541025 1.192 0.15447387
-0.13251276 0.18214224 1.1953335 0.15447387
-0.12611605 0.18258443 1.1957501 0.15447387
-0.11810222 0.18478085 1.1972727 0.15447387
-0.11033231 0.18507768 1.1971875 0.15447387
-0.10261814 0.18485036 1.1977273 0.15447387
-0.14817603 0.18713208 1.1933333 0.15447387
-0.12574834 0.18658379 1.19225 0.15447387
-0.12025604 0.18799387 1.194 0.15447387
-0.07763724 0.079517357 1.184625 0.15706904
-0.069746494 0.079509318 1.1845 0.15706904
-0.061850052 0.079493016 1.18425 0.15706904
-0.054017376 0.079565413 1.1853333 0.15706904
-0.094429389 0.082750931 1.189 0.15706904
-0.085861571 0.083225675 1.1893333 0.15706904
-0.077909134 0.083184853 1.18875 0.15706904
-0.069952585 0.083132371 1.1880001 0.15706904
-0.062148929 0.08327233 1.1900001 0.15706904
-0.0542158 0.083249003 1.1896667 0.15706904
-0.094076373 0.086894326 1.193125 0.15706904
-0.087334342 0.085822709 1.194 0.15706904
-0.086048998 0.08892405 1.1964285 0.15706904
-0.079543822 0.089404047 1.1963334 0.15706904
-0.077042863 0.086873136 1.1928333 0.15706904
-0.070129223 0.086739458 1.1910001 0.15706904
-0.064020798 0.086335942 1.1932501 0.15706904
-0.06162345 0.089113697 1.1962501 0.15706904
-0.055441599 0.089195855 1.1966001 0.15706904
-0.053221878 0.086867146 1.1927501 0.15706904
-0.094322428 0.090533927 1.1962501 0.15706904
-0.070383757 0.090464555 1.1953334 0.15706904
-0.093451284 0.093073756 1.1996667 0.15706904
-0.086346634 0.093964636 1.2013334 0.15706904
-0.077591538 0.09320306 1.2013334 0.15706904
-0.069747172 0.094167851 1.201143 0.15706904
-0.061625388 0.094384693 1.2018334 0.15706904
-0.053601399 0.09433943 1.20125 0.15706904
-0.083656862 0.097048588 1.2065001 0.15706904
-0.082820825 0.096255824 1.2110001 0.15706904
-0.077698551 0.095619947 1.2030001 0.15706904
-0.069787696 0.097905777 1.2086 0.15706904
-0.078215249 0.098558627 1.2110001 0.15706904
-0.062010903 0.098422974 1.2093334 0.15706904
-0.053946733 0.098395847 1.2090001 0.15706904
-0.055506367 0.10144443 1.2180001 0.15706904
-0.068693161 0.14873715 1.2260001 0.15435314
-0.10214851 0.15171593 1.2218335 0.15435314
-0.094402455 0.15319806 1.2227273 0.15435314
-0.085736968 0.15342198 1.223875 0.15435314
-0.062220097 0.15272756 1.2225 0.15435314
-0.10131572 0.15556438 1.2174 0.15435314
-0.10195128 0.16102555 1.2167001 0.15435314
-0.09384574 0.1584 1.2196251 0.15435314
-0.085802786 0.15853478 1.2206668 0.15435314
-0.078333691 0.15775248 1.22 0.15435314
-0.068894215 0.15777168 1.2192501 0.15435314
-0.062531576 0.15838341 1.2195001 0.15435314
-0.078135647 0.16145003 1.2142501 0.15435314
-0.070732839 0.16154523 1.2155455 0.15435314
-0.093606576 0.16261934 1.2165 0.15435314
-0.085417129 0.1624411 1.2151667 0.15435314
-0.062352743 0.16255267 1.2160001 0.15435314
-0.10209189 0.16696878 1.2132857 0.15435314
-0.093919478 0.16675736 1.2141429 0.15435314
-0.08703766 0.16685833 1.212 0.15435314
-0.085499823 0.17000684 1.2098 0.15435314
-0.078215249 0.16533974 1.2110001 0.15435314
-0.06974344 0.16652195 1.2124287 0.15435314
-0.062164415 0.16667318 1.2123333 0.15435314
-0.078014739 0.16950767 1.207889 0.15435314
-0.070467532 0.17054057 1.2097778 0.15435314
-0.10216129 0.17070821 1.20825 0.15435314
-0.09425687 0.17095543 1.21 0.15435314
-0.061993182 0.17081416 1.2090001 0.15435314
-0.093858719 0.17595914 1.2048889 0.15435314
-0.085596338 0.17678633 1.2060716 0.15435314
-0.077835746 0.17599244 1.2051111 0.15435314
-0.069512583 0.17671332 1.2055714 0.15435314
-0.062038682 0.17692898 1.2058183 0.15435314
-0.09352982 0.17991094 1.2006668 0.15435314
-0.14185961 0.1019164 1.2236668 0.15594256
-0.13364206 0.10186087 1.223 0.15594256
-0.1256038 0.10194416 1.224 0.15594256
-0.11862252 0.10194416 1.2240001 0.15594256
-0.14993368 0.10500997 1.2326667 0.15594256
-0.14176868 0.10503837 1.233 0.15594256
-0.13356249 0.10503837 1.233 0.15594256
-0.12652735 0.10503837 1.2330002 0.15594256
-0.12076493 0.10629684 1.2340001 0.15594256
-0.11703998 0.1063049 1.2368 0.15594256
-0.11011627 0.10503837 1.233 0.15594256
-0.14237159 0.10784024 1.23825 0.15594256
-0.13414085 0.10784749 1.2383333 0.15594256
-0.12599006 0.10792733 1.2392501 0.15594256
-0.11065211 0.10790554 1.2390001 0.15594256
-0.10594004 0.10790555 1.2390001 0.15594256
-0.15022868 0.11206351 1.2415557 0.15594256
-0.14147078 0.11276996 1.2406667 0.15594256
-0.13440458 0.11278028 1.240778 0.15594256
-0.12702404 0.11128616 1.2416668 0.15594256
-0.11796343 0.11285034 1.2415557 0.15594256
-0.11028542 0.11196017 1.2415001 0.15594256
-0.1247591 0.11443652 1.2434 0.15594256
-0.1086457 0.11475395 1.243 0.15594256
-0.14882755 0.11534486 1.243 0.15594256
-0.13002296 0.11543766 1.2440001 0.15594256
-0.14410028 0.11889033 1.243 0.15594256
-0.14142513 0.1217362 1.2402729 0.15594256
-0.13489288 0.12165754 1.2404447 0.15594256
-0.13191426 0.11922254 1.244 0.15594256
-0.12527637 0.11897019 1.2438333 0.15594256
-0.11810802 0.12125281 1.2406001 0.15594256
-0.10987122 0.11893839 1.2435001 0.15594256
-0.11691843 0.12007216 1.243 0.15594256
-0.12609458 0.12334271 1.2402501 0.15594256
-0.11018146 0.12327776 1.2412857 0.15594256
-0.14174768 0.12841855 1.2369 0.15646301
-0.13398354 0.12888867 1.2368889 0.15646301
-0.12581427 0.12895249 1.2375002 0.15646301
-0.11755086 0.12892359 1.2372223 0.15646301
-0.11057272 0.12901455 1.238111 0.15646301
-0.14423016 0.13093542 1.2340001 0.15646301
-0.1416759 0.13659921 1.2321877 0.15646301
-0.13377914 0.13338998 1.235 0.15646301
-0.12496117 0.13437174 1.2368333 0.15646301
-0.11794399 0.13448092 1.2364001 0.15646301
-0.10972963 0.13400409 1.23525 0.15646301
-0.13347803 0.13777456 1.2322223 0.15646301
-0.12673144 0.13805608 1.232125 0.15646301
-0.11785778 0.13855569 1.2322222 0.15646301
-0.11036398 0.13809873 1.2325001 0.15646301
-0.14988083 0.14248767 1.2284001 0.15646301
-0.14257418 0.14335488 1.2298335 0.15646301
-0.13399889 0.14423424 1.2291819 0.15646301
-0.12603296 0.1431606 1.2281668 0.15646301
-0.1175242 0.14409603 1.2280002 0.15646301
-0.10975871 0.1432579 1.2290001 0.15646301
-0.10166071 0.14337415 1.23 0.15646301
-0.15029286 0.14631119 1.2234546 0.15646301
-0.14201355 0.14745015 1.225 0.15646301
-0.13455983 0.14814955 1.225 0.15646301
-0.12567441 0.14741035 1.2246667 0.15646301
-0.11825355 0.14814954 1.225 0.15646301
-0.10940307 0.1474511 1.225 0.15646301
-0.10238507 0.14741099 1.2246667 0.15646301
-0.15003221 0.15130498 1.2198572 0.15646301
-0.14169466 0.15203683 1.2197499 0.15646301
-0.13426544 0.15187103 1.2207501 0.15646301
-0.12598465 0.15150869 1.2201667 0.15646301
-0.11777564 0.15158796 1.2221429 0.15646301
-0.10982466 0.15193835 1.2222859 0.15646301
-0.12583502 0.1552588 1.2162223 0.15646301
-0.14351813 0.15471491 1.2180001 0.15646301
-0.13267356 0.15544398 1.2176667 0.15646301
-0.11750106 0.15553822 1.2172 0.15646301
-0.11059228 0.15512656 1.2176001 0.15646301
-0.094178975 0.096096851 1.2090001 0.15581943
-0.10414445 0.099128321 1.2180001 0.15581943
-0.10075295 0.099209711 1.2190001 0.15581943
-0.093838379 0.099250406 1.2195001 0.15581943
-0.086916193 0.099291094 1.22 0.15581943
-0.11040927 0.1018817 1.22325 0.15581943
-0.10158232 0.10235947 1.2220001 0.15581943
-0.094001777 0.10290986 1.2216251 0.15581943
-0.085919939 0.10296974 1.2223333 0.15581943
-0.077828214 0.10302582 1.223 0.15581943
-0.069621079 0.10292713 1.2218333 0.15581943
-0.062634759 0.10289938 1.2215 0.15581943
-0.10217685 0.10647999 1.2334001 0.15581943
-0.093755208 0.10744107 1.2336668 0.15581943
-0.086716264 0.10744107 1.2336668 0.15581943
-0.082113773 0.10755718 1.235 0.15581943
-0.077333972 0.10744107 1.2336668 0.15581943
-0.070200689 0.10729591 1.2320001 0.15581943
-0.062052451 0.10738301 1.233 0.15581943
-0.10131053 0.11271001 1.24 0.15581943
-0.094210334 0.1126795 1.2396667 0.15581943
-0.086016983 0.11275539 1.2405001 0.15581943
-0.077738367 0.11272032 1.2401112 0.15581943
-0.070548706 0.1125381 1.2381113 0.15581943
-0.062404096 0.11270948 1.24 0.15581943
-0.10209983 0.12160514 1.2414286 0.15617342
-0.094118245 0.12097692 1.2412728 0.15617342
-0.086274005 0.12127364 1.2408001 0.15617342
-0.082645677 0.1177085 1.243 0.15617342
-0.08028204 0.11889033 1.243 0.15617342
-0.077315174 0.12151948 1.2409002 0.15617342
-0.070310444 0.1210819 1.2403077 0.15617342
-0.062178876 0.12090077 1.2402 0.15617342
-0.054161143 0.12098517 1.2402501 0.15617342
-0.10158234 0.12128681 1.2433333 0.15617342
-0.096827507 0.1224358 1.243 0.15617342
-0.10227568 0.12894334 1.2374166 0.15617342
-0.094042093 0.1289472 1.2374445 0.15617342
-0.085774772 0.12890024 1.237 0.15617342
-0.077535748 0.12888908 1.2368889 0.15617342
-0.070484966 0.12890087 1.237 0.15617342
-0.06229442 0.12898834 1.2378334 0.15617342
-0.054058395 0.12899329 1.2378891 0.15617342
-0.1032496 0.13456419 1.235 0.15617342
-0.1015125 0.13746139 1.2329168 0.15617342
-0.093881547 0.13460018 1.2353334 0.15617342
-0.086266212 0.13634996 1.2323848 0.15617342
-0.076829813 0.13397709 1.235 0.15617342
-0.070068166 0.13512968 1.2355715 0.15617342
-0.062252324 0.13595693 1.2370001 0.15617342
-0.054306127 0.13516054 1.2358571 0.15617342
-0.078718819 0.13796265 1.2320001 0.15617342
-0.093678258 0.13899763 1.2326666 0.15617342
-0.070715584 0.13924649 1.2328001 0.15617342
-0.053385131 0.13929197 1.2332001 0.15617342
-0.062076665 0.14026469 1.2335 0.15617342
-0.094467081 0.14554437 1.23025 0.15617342
-0.086190566 0.14529565 1.2291818 0.15617342
-0.078188777 0.14555645 1.2286875 0.15617342
-0.070229076 0.14482147 1.2284001 0.15617342
-0.061878841 0.14449275 1.2295834 0.15617342
-0.053681564 0.14562143 1.2292501 0.15617342
-0.091792502 0.14979796 1.2283335 0.15617342
-0.088653699 0.15014639 1.2280002 0.15617342
-0.06164889 0.14861581 1.225 0.15617342
-0.07788147 0.15312631 1.2238333 0.15617342
-0.069669291 0.15298058 1.2226666 0.15617342
-0.10129227 0.20229177 1.1673335 0.31523132
-0.10924631 0.21044171 1.1653334 0.31523132
-0.10589382 0.20929068 1.161 0.31523132
-0.10019853 0.20442346 1.1340001 0.31523132
-0.11178043 0.21444075 1.1610001 0.31523132
-0.1093188 0.21192171 1.128 0.31523132
-0.11980711 0.22267237 1.1675 0.31523132
-0.11683166 0.22013949 1.1600001 0.31523132
-0.11185475 0.2182788 1.1276 0.31523132
-0.1195998 0.22422786 1.1583334 0.31523132
-0.11667725 0.22009881 1.1370001 0.31523132
-0.12639017 0.22749221 1.1600001 0.31523132
-0.11852348 0.225122 1.1340001 0.31523132
-0.13443843 0.23330291 1.1596667 0.31523132
-0.12392173 0.22580466 1.1440001 0.31523132
-0.12238488 0.22698894 1.1500001 0.31523132
-0.11998904 0.22659418 1.148 0.31523132
-0.11330657 0.22205439 1.125 0.31523132
-0.12874222 0.23077001 1.158 0.31523132
-0.1234838 0.22729068 1.1333334 0.31523132
-0.11711731 0.22668068 1.1246001 0.31523132
-0.12928164 0.23196609 1.153 0.31523132
-0.13124606 0.23375243 1.151 0.31523132
-0.12793612 0.23172157 1.141 0.31523132
-0.12790899 0.23360287 1.1343334 0.31523132
-0.12208023 0.22887836 1.1270001 0.31523132
-0.13633044 0.23717105 1.1570001 0.31523132
-0.1245869 0.23432314 1.1264001 0.31523132
-0.12175526 0.23040646 1.1240001 0.31523132
-0.11793744 0.23303573 1.1202 0.31523132
-0.12833291 0.24130054 1.1330001 0.31523132
-0.12492534 0.24098602 1.1285001 0.31523132
-0.14222917 0.19154833 1.187889 0.15298343
-0.13408352 0.1919255 1.1880771 0.15298343
-0.1256296 0.19127482 1.1890001 0.15298343
-0.11819328 0.19327065 1.1895715 0.15298343
-0.10990865 0.19281203 1.1901335 0.15298343
-0.12621605 0.19519149 1.1860001 0.15298343
-0.1465133 0.1957553 1.1860001 0.15298343
-0.14192234 0.19564527 1.1853334 0.15298343
-0.13523705 0.1957553 1.1860001 0.15298343
-0.1498812 0.20040204 1.1820716 0.15298343
-0.14202771 0.20083703 1.1808573 0.15298343
-0.13400909 0.2011283 1.1831334 0.15298343
-0.13083677 0.19817752 1.187 0.15298343
-0.12857962 0.19817752 1.187 0.15298343
-0.12577038 0.20131184 1.1837274 0.15298343
-0.11802967 0.20089063 1.1830626 0.15298343
-0.11040229 0.20025678 1.1833001 0.15298343
-0.10276761 0.19923221 1.1843334 0.15298343
-0.1022708 0.2020148 1.1752001 0.15298343
-0.10851879 0.2033087 1.1775 0.15298343
-0.15046299 0.20860766 1.1835555 0.15298343
-0.14411959 0.20771265 1.18025 0.15298343
-0.13970326 0.2086612 1.176125 0.15298343
-0.13416477 0.20873187 1.1748182 0.15298343
-0.13219692 0.20580965 1.179 0.15298343
-0.12600347 0.20639808 1.1798 0.15298343
-0.11848912 0.20676094 1.1801667 0.15298343
-0.11201946 0.20580965 1.179 0.15298343
-0.11056256 0.20817831 1.1741112 0.15298343
-0.12661238 0.2100254 1.1763637 0.15298343
-0.11761715 0.21005839 1.176125 0.15298343
-0.14801437 0.2120772 1.189 0.15298343
-0.15134789 0.21632037 1.1850001 0.15298343
-0.1494112 0.21666408 1.1911429 0.15298343
-0.14450131 0.21415791 1.1880001 0.15298343
-0.1437715 0.21644682 1.1820002 0.15298343
-0.14200315 0.21713889 1.1748 0.15298343
-0.13486266 0.21465614 1.171 0.15298343
-0.13430917 0.21719798 1.1690001 0.15298343
-0.12529643 0.21634358 1.1725385 0.15298343
-0.11978821 0.21531036 1.17275 0.15298343
-0.116719 0.21677361 1.1671251 0.15298343
-0.15083288 0.21865693 1.17575 0.15298343
-0.12811112 0.21888356 1.169 0.15298343
-0.14962839 0.21986103 1.1663334 0.15298343
-0.14314492 0.21994305 1.16775 0.15298343
-0.14177157 0.22349544 1.1639092 0.15298343
-0.13399228 0.22448108 1.165375 0.15298343
-0.12580633 0.22410904 1.16825 0.15298343
-0.13427304 0.23010778 1.1630001 0.15298343
-0.14222105 0.24146287 1.15125 0.19579339
-0.1361991 0.2399161 1.1505715 0.19579339
-0.13342176 0.24195369 1.1415001 0.19579339
-0.15079243 0.24779503 1.1531999 0.19579339
-0.1434413 0.24969681 1.151 0.19579339
-0.13965747 0.2494268 1.1446002 0.19579339
-0.13483745 0.24864525 1.1426363 0.19579339
-0.14999466 0.25129506 1.1572001 0.19579339
-0.1283862 0.24893217 1.135375 0.19579339
-0.15025334 0.254926 1.1577142 0.19579339
-0.12438862 0.24956921 1.1285 0.19579339
-0.15545666 0.25476533 1.152 0.19579339
-0.15090568 0.25483462 1.1506666 0.19579339
-0.15796623 0.25510329 1.143 0.19579339
-0.14218505 0.25476208 1.1421667 0.19579339
-0.13452308 0.25573599 1.1416668 0.19579339
-0.15086947 0.25693241 1.1421667 0.19579339
-0.1410235 0.25819078 1.1348463 0.19579339
-0.12999177 0.25536412 1.1400001 0.19579339
-0.12817284 0.25790873 1.1348572 0.19579339
-0.15837696 0.25894153 1.1358184 0.19579339
-0.14965269 0.2594305 1.1356667 0.19579339
-0.12422328 0.25673756 1.1270001 0.19579339
-0.133875 0.2599062 1.1361668 0.19579339
-0.15813917 0.26218238 1.1320001 0.19579339
-0.15069453 0.26233676 1.1326667 0.19579339
-0.14978066 0.26483327 1.1258181 0.19579339
-0.14199619 0.26218238 1.1320001 0.19579339
-0.13443054 0.26212448 1.13175 0.19579339
-0.1279472 0.26206657 1.1315 0.19579339
-0.12542161 0.26582786 1.1269374 0.19579339
-0.14206392 0.26586571 1.1257336 0.19579339
-0.13380295 0.26617998 1.1270669 0.19579339
-0.13469911 0.26911816 1.125 0.19579339
-0.13979827 0.2707752 1.123 0.19579339
-0.13453859 0.27266365 1.1188182 0.19579339
-0.12634513 0.27153072 1.1173333 0.19579339
-0.094528474 0.19866911 1.1570001 0.40819111
-0.093468301 0.19834703 1.153 0.40819111
-0.088605478 0.19662987 1.1515 0.40819111
-0.086039014 0.19915299 1.1513333 0.40819111
-0.08338356 0.19832568 1.1550001 0.40819111
-0.078662865 0.19935594 1.1610001 0.40819111
-0.077326573 0.19969936 1.1630001 0.40819111
-0.069497474 0.19944181 1.1615001 0.40819111
-0.099356204 0.20284209 1.1620001 0.40819111
-0.085783169 0.20060928 1.1430001 0.40819111
-0.081046678 0.20127101 1.153 0.40819111
-0.077721521 0.20079419 1.1428001 0.40819111
-0.070501357 0.20043659 1.1420001 0.40819111
-0.062348474 0.20081779 1.1432858 0.40819111
-0.059326805 0.20196927 1.1570001 0.40819111
-0.085982651 0.20193315 1.1361667 0.40819111
-0.077761203 0.20280217 1.1370001 0.40819111
-0.070077285 0.20354709 1.1351252 0.40819111
-0.06148978 0.20370412 1.136 0.40819111
-0.086020507 0.20854208 1.1429232 0.40819111
-0.078124255 0.20954923 1.1423335 0.40819111
-0.076746337 0.20514452 1.138 0.40819111
-0.070842393 0.21087255 1.1416668 0.40819111
-0.069172427 0.20730849 1.138 0.40819111
-0.061585695 0.20726295 1.13775 0.40819111
-0.061749034 0.21106376 1.1407502 0.40819111
-0.086482957 0.2155959 1.1475556 0.40819111
-0.078313529 0.21626663 1.1419002 0.40819111
-0.070393555 0.2153061 1.14025 0.40819111
-0.070185319 0.21899264 1.136875 0.40819111
-0.077761203 0.22009881 1.1370001 0.40819111
-0.091743171 0.22692251 1.1496668 0.40819111
-0.082156271 0.22570235 1.138 0.40819111
-0.077697724 0.22532213 1.1360832 0.40819111
-0.070097223 0.2251942 1.1354375 0.40819111
-0.088752083 0.22818111 1.1486667 0.40819111
-0.084690727 0.22778076 1.143 0.40819111
-0.091530368 0.23075899 1.1470001 0.40819111
-0.08829768 0.23085958 1.1475 0.40819111
-0.086737536 0.23214929 1.1413335 0.40819111
-0.078364111 0.23272471 1.1343637 0.40819111
-0.087882452 0.1800358 1.2015001 0.15542239
-0.077613063 0.18006076 1.2016667 0.15542239
-0.071889386 0.1800358 1.2015001 0.15542239
-0.059348572 0.18011071 1.202 0.15542239
-0.057062898 0.18011071 1.202 0.15542239
-0.094113499 0.18424988 1.196923 0.15542239
-0.086125426 0.18491697 1.1978463 0.15542239
-0.078497387 0.1845959 1.19775 0.15542239
-0.069722004 0.18388592 1.198182 0.15542239
-0.061946474 0.18447721 1.1992 0.15542239
-0.053408738 0.18455659 1.1989231 0.15542239
-0.099821888 0.18799387 1.194 0.15542239
-0.095280968 0.18799387 1.194 0.15542239
-0.077117264 0.18799387 1.194 0.15542239
-0.070305884 0.18799387 1.194 0.15542239
-0.062359262 0.18799387 1.194 0.15542239
-0.055547878 0.18799387 1.194 0.15542239
-0.10207784 0.19323987 1.1897694 0.15542239
-0.093898013 0.19315901 1.1908749 0.15542239
-0.086239032 0.19392487 1.1914001 0.15542239
-0.085135125 0.19042368 1.1950001 0.15542239
-0.078055881 0.1931801 1.191 0.15542239
-0.070163898 0.19327559 1.1915834 0.15542239
-0.062402084 0.19286741 1.1904666 0.15542239
-0.053994767 0.19230631 1.1898 0.15542239
-0.058558572 0.1957553 1.1860001 0.15542239
-0.055175699 0.1957553 1.1860001 0.15542239
-0.093816079 0.1985914 1.1837145 0.15542239
-0.085693754 0.19817752 1.187 0.15542239
-0.077859275 0.19834448 1.1880001 0.15542239
-0.069913961 0.19823317 1.1873333 0.15542239
-0.065379396 0.19817752 1.187 0.15542239
-0.061331749 0.19888946 1.1835716 0.15542239
-0.086345941 0.1993371 1.1805001 0.15542239
-0.077580012 0.19988589 1.18375 0.15542239
-0.069639176 0.19970296 1.1826668 0.15542239
-0.062096775 0.25720948 1.10825 0.15951736
-0.053082485 0.25679636 1.1055 0.15951736
-0.077767029 0.26529658 1.1215 0.15951736
-0.071050674 0.26071554 1.1165001 0.15951736
-0.056762986 0.25954968 1.107 0.15951736
-0.096366033 0.2635195 1.1122001 0.15951736
-0.092871502 0.26565748 1.118143 0.15951736
-0.086188272 0.2647576 1.1201249 0.15951736
-0.070211016 0.26579273 1.1200001 0.15951736
-0.061962966 0.26404181 1.1110002 0.15951736
-0.04501754 0.26520494 1.1115834 0.15951736
-0.076802462 0.26792791 1.123 0.15951736
-0.053521417 0.26229197 1.10525 0.15951736
-0.048255537 0.26223263 1.105 0.15951736
-0.086411983 0.26863974 1.123 0.15951736
-0.065654151 0.26672599 1.115 0.15951736
-0.053713925 0.26640683 1.1092501 0.15951736
-0.092859194 0.27196395 1.1235001 0.15951736
-0.089009129 0.27180913 1.1243334 0.15951736
-0.077545494 0.27177402 1.1183333 0.15951736
-0.07012938 0.27293858 1.11875 0.15951736
-0.062871702 0.27303773 1.1182668 0.15951736
-0.042331524 0.26884624 1.115 0.15951736
-0.05413669 0.27339238 1.1129233 0.15951736
-0.046530232 0.27072346 1.1140001 0.15951736
-0.045199435 0.27403945 1.1160001 0.15951736
-0.050812479 0.27414685 1.115 0.15951736
-0.077588782 0.27547798 1.1124285 0.15951736
-0.072910666 0.27670544 1.1125001 0.15951736
-0.07043688 0.27782083 1.1102002 0.15951736
-0.067774385 0.27732721 1.115 0.15951736
-0.062559739 0.2777003 1.1165001 0.15951736
-0.053214021 0.27891991 1.10975 0.15951736
-0.045785181 0.27955681 1.1106429 0.15951736
-0.046572 0.27732721 1.115 0.15951736
-0.062292408 0.27863297 1.1117501 0.15951736
-0.061825808 0.28011656 1.1017272 0.15951736
-0.054466151 0.28182289 1.1031818 0.15951736
-0.044558942 0.2831158 1.1045001 0.15951736
-0.053889807 0.28853214 1.102125 0.15951736
-0.051363587 0.28880602 1.1086001 0.15951736
-0.047376122 0.28848854 1.1090001 0.15951736
-0.045209412 0.28970554 1.1024001 0.15951736
-0.03097555 0.075125836 1.1805 0.15670216
-0.022348886 0.075798169 1.1793333 0.15670216
-0.046126228 0.079559669 1.18525 0.15670216
-0.038212936 0.079509318 1.1845 0.15670216
-0.030349463 0.079559669 1.18525 0.15670216
-0.022428475 0.079442196 1.1835001 0.15670216
-0.014551736 0.080575027 1.1835834 0.15670216
-0.0059988778 0.080118783 1.1835001 0.15670216
-0.046290904 0.083237335 1.1895001 0.15670216
-0.038347989 0.083179019 1.1886667 0.15670216
-0.030431969 0.083167359 1.1885 0.15670216
-0.022506798 0.083109044 1.1876668 0.15670216
-0.0033077511 0.083062395 1.187 0.15670216
-0.046440877 0.086912535 1.1933751 0.15670216
-0.038498223 0.086910017 1.1933335 0.15670216
-0.03053439 0.086849168 1.1925 0.15670216
-0.021443117 0.086758137 1.1912501 0.15670216
-0.013497704 0.086654961 1.1898334 0.15670216
-0.0055816383 0.087825656 1.1903335 0.15670216
-0.046571385 0.090571776 1.19675 0.15670216
-0.037478112 0.090590693 1.197 0.15670216
-0.029486878 0.09051501 1.1960001 0.15670216
-0.021523163 0.090496086 1.1957501 0.15670216
-0.013555679 0.090439327 1.1950001 0.15670216
-0.045611747 0.094122499 1.2014 0.15670216
-0.037596237 0.09429992 1.2007501 0.15670216
-0.029605724 0.094306789 1.2008334 0.15670216
-0.021616945 0.094320044 1.201 0.15670216
-0.013615238 0.094254434 1.2001667 0.15670216
-0.0056146202 0.092886262 1.1972501 0.15670216
-0.045871809 0.097762913 1.20825 0.15670216
-0.0056230454 0.095321886 1.19925 0.15670216
-0.037831064 0.098334812 1.2082502 0.15670216
-0.029807387 0.098395847 1.2090001 0.15670216
-0.021760939 0.098395847 1.2090001 0.15670216
-0.013714491 0.098395847 1.2090001 0.15670216
-0.0056605511 0.098253421 1.20725 0.15670216
-0.05426896 0.15327924 1.2233638 0.1571642
-0.048916873 0.15119168 1.2270001 0.1571642
-0.046173841 0.15342246 1.223875 0.1571642
-0.038323801 0.153147 1.2240001 0.1571642
-0.054915152 0.15822706 1.2195714 0.1571642
-0.04573793 0.15786837 1.22 0.1571642
-0.038207263 0.15848058 1.22025 0.1571642
-0.029474434 0.15773945 1.2190001 0.1571642
-0.021961061 0.1584647 1.2201251 0.1571642
-0.013836123 0.15724589 1.2196667 0.1571642
-0.053785298 0.16189907 1.2140002 0.1571642
-0.046416398 0.1615517 1.215 0.1571642
-0.030278012 0.16173469 1.2163751 0.1571642
-0.013791375 0.16136575 1.2157779 0.1571642
-0.038034346 0.16238517 1.2147502 0.1571642
-0.021879597 0.16248544 1.2155001 0.1571642
-0.054435592 0.16538525 1.2113334 0.1571642
-0.053831141 0.16922371 1.2083848 0.1571642
-0.045560453 0.16642469 1.2122 0.1571642
-0.037947766 0.16547626 1.212 0.1571642
-0.029921807 0.16570382 1.2136668 0.1571642
-0.021329736 0.16652168 1.2124287 0.1571642
-0.01375923 0.16676515 1.2129999 0.1571642
-0.046239827 0.17036133 1.2092857 0.1571642
-0.037798811 0.16940577 1.2071668 0.1571642
-0.029749224 0.16933468 1.2066667 0.1571642
-0.022125786 0.17028935 1.2080001 0.1571642
-0.013714491 0.17081416 1.2090001 0.1571642
-0.053565565 0.17697988 1.2056001 0.1571642
-0.045764867 0.1771818 1.2054168 0.1571642
-0.038037095 0.17653693 1.2043571 0.1571642
-0.02874898 0.17479919 1.2032001 0.1571642
-0.021684201 0.17659898 1.2047857 0.1571642
-0.013673319 0.17602447 1.2053335 0.1571642
-0.030280536 0.17810874 1.2017144 0.1571642
-0.035334762 0.1800358 1.2015001 0.1571642
-0.021634944 0.18011071 1.202 0.1571642
-0.013628155 0.18001084 1.2013334 0.1571642
-0.047960065 0.18254815 1.2030001 0.1571642
-0.045696545 0.185875 1.1986667 0.1571642
-0.038113698 0.18454242 1.1976923 0.1571642
-0.029302686 0.18448916 1.1977999 0.1571642
-0.021589946 0.18543464 1.1995001 0.1571642
-0.01379509 0.18486485 1.1978183 0.1571642
0.03379738 0.080482528 1.1822224 0.1561434
0.029420936 0.083062395 1.187 0.1561434
0.0023401463 0.087759174 1.1894445 0.1561434
0.010252881 0.087732472 1.1890835 0.1561434
0.018172741 0.087759174 1.1894445 0.1561434
0.026373843 0.088183016 1.1904616 0.1561434
0.034036253 0.088975221 1.1905833 0.1561434
0.041307222 0.086193681 1.1857144 0.1561434
0.042297825 0.090773582 1.1894444 0.1561434
0.04953647 0.090269282 1.189 0.1561434
0.0023547767 0.092841007 1.1966667 0.1561434
0.01031612 0.09282808 1.1965001 0.1561434
0.018272685 0.092789285 1.1960001 0.1561434
0.02509548 0.092789285 1.1960001 0.1561434
0.0023600226 0.09532851 1.1993333 0.1561434
0.010334807 0.095282145 1.19875 0.1561434
0.018303242 0.095222525 1.1980001 0.1561434
0.026276479 0.095222525 1.1980001 0.1561434
0.034221128 0.095143043 1.197 0.1561434
0.042160563 0.09508343 1.1962501 0.1561434
0.050112393 0.095063545 1.1960001 0.1561434
0.0023764384 0.098314464 1.2080001 0.1561434
0.010410968 0.098273769 1.2075 0.1561434
0.018446473 0.098260202 1.2073334 0.1561434
0.026460538 0.098192379 1.2065001 0.1561434
0.034449838 0.098070301 1.205 0.1561434
0.042442519 0.098009259 1.2042501 0.1561434
0.050447594 0.097988911 1.2040001 0.1561434
0.033580534 0.10119457 1.215 0.1561434
0.041643415 0.10113905 1.2143334 0.1561434
0.049794246 0.10243591 1.2160001 0.1561434
0.0024057431 0.15303642 1.2231112 0.15491
0.009032188 0.1520745 1.2207143 0.15491
0.010498147 0.15580851 1.2175 0.15491
-0.0064749089 0.16109818 1.2166667 0.15491
-0.0033983008 0.15841612 1.21975 0.15491
0.0016270723 0.15885633 1.2201667 0.15491
0.0070340792 0.15715994 1.2190001 0.15491
0.010750548 0.16102876 1.2159232 0.15491
0.018570611 0.16017096 1.2155 0.15491
0.025536118 0.1569021 1.217 0.15491
0.041471083 0.16048126 1.2154546 0.15491
0.0031642423 0.16223364 1.2165002 0.15491
0.025475288 0.16114452 1.2141112 0.15491
0.033584189 0.16127436 1.2150835 0.15491
-0.005689139 0.16683342 1.2135 0.15491
0.0018111021 0.16629089 1.2137501 0.15491
0.010450263 0.1655104 1.21225 0.15491
0.018507583 0.16538525 1.2113334 0.15491
0.025431206 0.16547626 1.212 0.15491
0.034021702 0.16660081 1.2130001 0.15491
0.041142724 0.16656312 1.2132 0.15491
0.0026623444 0.1697216 1.207375 0.15491
0.010401067 0.16928805 1.2063333 0.15491
0.018442012 0.16938207 1.207 0.15491
0.026198011 0.16983452 1.2087274 0.15491
0.03390326 0.17030093 1.2088573 0.15491
0.041740049 0.17011967 1.2075714 0.15491
-0.0056664194 0.17072572 1.2083751 0.15491
-0.0056499182 0.17598788 1.2050835 0.15491
0.0014527785 0.17491488 1.2040001 0.15491
0.010601875 0.17431284 1.2030001 0.15491
0.019304592 0.17485684 1.2036 0.15491
0.026415391 0.17587791 1.2043334 0.15491
0.034421246 0.17468573 1.2040001 0.15491
0.042442519 0.17357799 1.2042501 0.15491
0.0030168418 0.17808734 1.2015715 0.15491
0.010255725 0.17774329 1.2014546 0.15491
0.017700663 0.17804453 1.2012857 0.15491
0.042352661 0.17777507 1.2016667 0.15491
0.034331035 0.17879307 1.2008333 0.15491
-0.0056319465 0.17999834 1.2012501 0.15491
0.026320346 0.17981105 1.2 0.15491
-0.0056144451 0.18398862 1.1975001 0.15491
0.0023554543 0.18396315 1.1973335 0.15491
0.010326009 0.18398876 1.1975001 0.15491
0.018302284 0.18518978 1.1979166 0.15491
0.026252002 0.18389915 1.1969167 0.15491
0.034212742 0.18432127 1.1967 0.15491
0.0023469515 0.18788891 1.1933334 0.15491
0.01029407 0.18795452 1.19375 0.15491
-0.05382172 0.10362066 1.2218001 0.15513045
-0.046362195 0.1028713 1.2211667 0.15513045
-0.038250428 0.10330022 1.2216667 0.15513045
-0.038135625 0.10144443 1.2180001 0.15513045
-0.030572152 0.10310594 1.2212001 0.15513045
-0.027713178 0.10144443 1.2180001 0.15513045
-0.02423903 0.10144443 1.2180001 0.15513045
-0.021209627 0.10327183 1.2213334 0.15513045
-0.013856604 0.10289938 1.2215 0.15513045
-0.0057102358 0.10144443 1.2180001 0.15513045
-0.0057308744 0.10412259 1.2222501 0.15513045
-0.053801652 0.10729591 1.2320001 0.15513045
-0.0456567 0.10742655 1.2335001 0.15513045
-0.037443716 0.10741204 1.2333333 0.15513045
-0.03037571 0.10729591 1.232 0.15513045
-0.022160705 0.1072306 1.23125 0.15513045
-0.013993667 0.10744107 1.2336668 0.15513045
-0.0057810508 0.10736124 1.2327501 0.15513045
-0.054092787 0.11258924 1.2386668 0.15513045
-0.045915488 0.11275569 1.2405001 0.15513045
-0.037646748 0.1127098 1.2400001 0.15513045
-0.03052026 0.11251768 1.2378889 0.15513045
-0.022271857 0.11247499 1.2374166 0.15513045
-0.014056687 0.11263846 1.2392222 0.15513045
-0.0058116824 0.11264131 1.2392501 0.15513045
-0.045954246 0.12110693 1.2414999 0.15513045
-0.03793326 0.12089013 1.2417001 0.15513045
-0.030368125 0.12085377 1.2413002 0.15513045
-0.022801487 0.11937007 1.2406002 0.15513045
-0.01360779 0.12060698 1.2412002 0.15513045
-0.0058137169 0.12098572 1.24025 0.15513045
-0.036554735 0.1224358 1.243 0.15513045
-0.031827461 0.1224358 1.243 0.15513045
-0.02158503 0.12401155 1.243 0.15513045
-0.016463812 0.12361762 1.243 0.15513045
-0.04587942 0.12916104 1.2394999 0.15631813
-0.037628401 0.12915601 1.2394445 0.15631813
-0.030595699 0.1293177 1.2410001 0.15631813
-0.022344649 0.12936063 1.2414167 0.15631813
-0.0140588 0.12913181 1.2392223 0.15631813
-0.0058000605 0.12897034 1.2376667 0.15631813
0.0024426475 0.12935244 1.2413335 0.15631813
-0.045171145 0.13411209 1.23625 0.15631813
-0.045822028 0.13762851 1.2326667 0.15631813
-0.037543856 0.13591988 1.2366667 0.15631813
-0.030275008 0.13648133 1.2375 0.15631813
-0.022506958 0.13694052 1.2374002 0.15631813
-0.014026867 0.13589609 1.2364445 0.15631813
-0.0057948451 0.1346999 1.23625 0.15631813
0.0027301814 0.13574494 1.2377501 0.15631813
-0.0057791583 0.13899194 1.232625 0.15631813
0.0018394641 0.1396212 1.233 0.15631813
-0.037412092 0.14013202 1.2323334 0.15631813
-0.031597011 0.14032155 1.2340001 0.15631813
-0.01869113 0.14032155 1.2340001 0.15631813
-0.013983591 0.14016993 1.2326667 0.15631813
-0.046308957 0.14535066 1.2292308 0.15631813
-0.038459707 0.14551756 1.2283572 0.15631813
-0.030308273 0.14446367 1.2293334 0.15631813
-0.022149822 0.14460014 1.2305 0.15631813
-0.013938005 0.14438577 1.2286668 0.15631813
-0.0057577458 0.14431791 1.2280835 0.15631813
0.0021253694 0.14410388 1.2287501 0.15631813
-0.034889136 0.14873715 1.2260001 0.15631813
-0.030218931 0.14869671 1.2256666 0.15631813
-0.022056973 0.14867647 1.2255001 0.15631813
-0.013907332 0.14873715 1.2260001 0.15631813
-0.005747742 0.14873715 1.2260001 0.15631813
-0.03013696 0.15293825 1.2223334 0.15631813
-0.022003287 0.15297085 1.2225834 0.15631813
-0.013881709 0.15310591 1.2236667 0.15631813
-0.0057297591 0.15293831 1.2223334 0.15631813
8.0011727e-05 0.10144443 1.2180001 0.15592743
0.0028663997 0.10312297 1.2214 0.15592743
0.010502459 0.10144443 1.2180001 0.15592743
0.018608807 0.10144443 1.2180001 0.15592743
0.025541848 0.1013889 1.2173334 0.15592743
0.0093846917 0.10421488 1.2233334 0.15592743
0.017525261 0.10420778 1.22325 0.15592743
0.025632137 0.1040729 1.2216667 0.15592743
0.033718728 0.10393091 1.22 0.15592743
0.04180409 0.10384574 1.2190001 0.15592743
0.002425598 0.10735398 1.2326667 0.15592743
0.009453739 0.10732494 1.2323334 0.15592743
0.017655158 0.10731769 1.2322501 0.15592743
0.025828613 0.10720883 1.2310001 0.15592743
0.033995107 0.10712174 1.23 0.15592743
0.042134959 0.10700562 1.2286668 0.15592743
0.050274685 0.10692579 1.2277501 0.15592743
0.0024361042 0.11254779 1.2382224 0.15592743
0.009496782 0.1125179 1.2378889 0.15592743
0.017742233 0.11255106 1.23825 0.15592743
0.025976337 0.112528 1.2380002 0.15592743
0.034201924 0.11248303 1.2375001 0.15592743
0.042065479 0.11305678 1.2364286 0.15592743
0.043491758 0.10981663 1.2340001 0.15592743
0.050498955 0.10974988 1.2332501 0.15592743
0.049444094 0.1135359 1.2361667 0.15592743
0.0024410121 0.12073898 1.2410003 0.15592743
0.0095099993 0.12093008 1.2396668 0.15592743
0.017748052 0.12084483 1.2388126 0.15592743
0.025989158 0.12082257 1.2385834 0.15592743
0.03423861 0.12084459 1.2388128 0.15592743
0.042487264 0.12085605 1.2389168 0.15592743
0.0024452922 0.12479944 1.243 0.15592743
0.0095074493 0.12915602 1.2394445 0.15581514
0.017723616 0.12891002 1.2370834 0.15581514
0.025969977 0.12897077 1.2376667 0.15581514
0.034178574 0.12886645 1.2366668 0.15581514
0.042410374 0.12886593 1.2366667 0.15581514
0.049491603 0.1289354 1.2373334 0.15581514
0.0094910348 0.13598114 1.2372222 0.15581514
0.016920431 0.13424478 1.2356668 0.15581514
0.026527621 0.13411209 1.23625 0.15581514
0.032504655 0.13439453 1.2356001 0.15581514
0.03480931 0.13780016 1.2324545 0.15581514
0.042939898 0.13397709 1.235 0.15581514
0.048810959 0.13397709 1.235 0.15581514
0.018110907 0.13814981 1.2313999 0.15581514
0.025547769 0.13798524 1.2314999 0.15581514
0.04194802 0.13801391 1.23175 0.15581514
0.0094562965 0.14016993 1.2326667 0.15581514
0.0089579467 0.14297782 1.2286001 0.15581514
0.015252226 0.1419166 1.2275001 0.15581514
0.017859399 0.14542331 1.2233572 0.15581514
0.025472617 0.1453187 1.224 0.15581514
0.028102044 0.1419744 1.228 0.15581514
0.034444299 0.14299114 1.228143 0.15581514
0.042455852 0.14367484 1.2282858 0.15581514
0.0097234929 0.14684741 1.2241429 0.15581514
0.033456821 0.14700811 1.2245556 0.15581514
0.0029937096 0.14812398 1.2257501 0.15581514
0.041564547 0.14775607 1.2256 0.15581514
0.017482432 0.15266895 1.2201667 0.15581514
0.025603943 0.15267536 1.2202221 0.15581514
0.033732545 0.15155023 1.2205 0.15581514
0.041888133 0.15282702 1.2214446 0.15581514
0.033632714 0.1557284 1.216875 0.15581514
0.044049703 0.1569021 1.217 0.15581514
-0.053768501 0.20258121 1.1480001 0.46427664
-0.053647913 0.20334265 1.1365715 0.46427664
-0.046921525 0.2028459 1.1495 0.46427664
-0.046873178 0.20403683 1.1370001 0.46427664
-0.043280661 0.20333727 1.1400001 0.46427664
-0.053661756 0.20864573 1.1368572 0.46427664
-0.046240326 0.20875926 1.1351819 0.46427664
-0.03897424 0.20943433 1.133889 0.46427664
-0.055155016 0.21182244 1.1390001 0.46427664
-0.047574449 0.21182244 1.1390001 0.46427664
-0.060852773 0.21581903 1.1397778 0.46427664
-0.056237955 0.2161542 1.1390001 0.46427664
-0.05356428 0.21714726 1.1374 0.46427664
-0.046306293 0.2169167 1.1362001 0.46427664
-0.047574449 0.21398832 1.1390001 0.46427664
-0.038480084 0.21603358 1.1327 0.46427664
-0.062625967 0.21886227 1.1370001 0.46427664
-0.034629796 0.21863765 1.1406666 0.46427664
-0.032712124 0.21923929 1.1495001 0.46427664
-0.040035993 0.22017628 1.13 0.46427664
-0.061367638 0.22485659 1.1337501 0.46427664
-0.053804014 0.22477411 1.1333333 0.46427664
-0.046206377 0.22451127 1.1320001 0.46427664
-0.036119327 0.2248978 1.1345556 0.46427664
-0.039469611 0.22640714 1.1284286 0.46427664
-0.070023619 0.23250538 1.1342502 0.46427664
-0.062770285 0.23071381 1.1318001 0.46427664
-0.056918286 0.2296907 1.131 0.46427664
-0.05460858 0.23117255 1.1277499 0.46427664
-0.046047498 0.23017836 1.128125 0.46427664
-0.061634779 0.23298936 1.1287501 0.46427664
-0.054182258 0.23257092 1.1190001 0.46427664
-0.04508692 0.23218207 1.1202 0.46427664
-0.069484152 0.23499437 1.1255001 0.46427664
-0.06267006 0.23459421 1.1184999 0.46427664
-0.05307183 0.23326872 1.1105001 0.46427664
-0.062185083 0.23492137 1.11 0.46427664
-0.061138015 0.23519981 1.1024001 0.46427664
-0.054012775 0.23476285 1.101 0.46427664
-0.032261893 0.18734753 1.1935 0.14908104
-0.036248952 0.18799387 1.194 0.14908104
-0.011273873 0.18799387 1.194 0.14908104
-0.0055949157 0.18787578 1.1932501 0.14908104
-0.046676893 0.19367602 1.1910714 0.14908104
-0.044232585 0.19042368 1.1950001 0.14908104
-0.038403977 0.19308366 1.1904167 0.14908104
-0.0304705 0.19301838 1.1899999 0.14908104
-0.022007242 0.19228959 1.1913334 0.14908104
-0.014147107 0.19337511 1.1902144 0.14908104
-0.0053142766 0.1920739 1.189 0.14908104
-0.021346958 0.1957553 1.1860001 0.14908104
-0.0066878381 0.1957553 1.1860001 0.14908104
-0.053609796 0.1991867 1.1834286 0.14908104
-0.046064213 0.19986849 1.1836667 0.14908104
-0.037988853 0.20072766 1.1839092 0.14908104
-0.031070706 0.19908038 1.187 0.14908104
-0.030035077 0.2023486 1.1850002 0.14908104
-0.022443635 0.20110805 1.1843334 0.14908104
-0.014543255 0.20132567 1.1827857 0.14908104
-0.014593505 0.19817752 1.187 0.14908104
-0.0055454271 0.20090096 1.183125 0.14908104
-0.061854515 0.19972813 1.1631668 0.14908104
-0.054984633 0.20095325 1.166 0.14908104
-0.052410632 0.20167071 1.1745 0.14908104
-0.045030497 0.20321997 1.1744001 0.14908104
-0.040243279 0.20339504 1.1780001 0.14908104
-0.055051293 0.20243478 1.1596668 0.14908104
-0.04656218 0.20388944 1.1680001 0.14908104
-0.037952818 0.20759758 1.1764286 0.14908104
-0.035823923 0.20598421 1.1800001 0.14908104
-0.030256292 0.20739029 1.1816251 0.14908104
-0.02236752 0.20716338 1.1803333 0.14908104
-0.016078893 0.20688137 1.1800001 0.14908104
-0.013748282 0.20978914 1.1761819 0.14908104
-0.0057735173 0.20950869 1.1765383 0.14908104
-0.0044082846 0.20592602 1.1796668 0.14908104
-0.044419628 0.20646343 1.1700001 0.14908104
-0.04233906 0.20716928 1.174 0.14908104
-0.030120673 0.21094346 1.176375 0.14908104
-0.022280976 0.2108465 1.1758333 0.14908104
-0.035489969 0.21184427 1.169 0.14908104
-0.02916733 0.21694984 1.1755834 0.14908104
-0.022434115 0.21674228 1.1730908 0.14908104
-0.01552482 0.21519579 1.1721251 0.14908104
-0.030619228 0.24292736 1.153 0.4441981
0.0014419871 0.24863674 1.1490002 0.4441981
-0.028705526 0.24985382 1.1517143 0.4441981
-0.022280453 0.24909846 1.1500001 0.4441981
-0.0054288008 0.24975762 1.1428 0.4441981
-0.030380225 0.24973078 1.1440001 0.4441981
-0.014126765 0.2504096 1.1431334 0.4441981
-0.020252431 0.25147656 1.1453334 0.4441981
-0.026128052 0.25504467 1.1483334 0.4441981
7.5216281e-05 0.25212955 1.1450001 0.4441981
-0.029273089 0.2571739 1.1432501 0.4441981
-0.022260975 0.25515917 1.1418573 0.4441981
-0.013789052 0.25475135 1.1392 0.4441981
-0.004258513 0.25499019 1.1397144 0.4441981
0.0011611155 0.25577289 1.1418334 0.4441981
-0.032280516 0.25840816 1.1343334 0.4441981
-0.021939987 0.25853601 1.1349001 0.4441981
-0.013952769 0.25855923 1.1350001 0.4441981
-0.0056157587 0.2587969 1.1351818 0.4441981
0.0011567436 0.25924405 1.138 0.4441981
-0.029164504 0.26163778 1.1390001 0.4441981
-0.0258133 0.26168036 1.1345 0.4441981
0.0011541861 0.26401141 1.1352501 0.4441981
-0.035155021 0.26486632 1.1277144 0.4441981
-0.030625295 0.26295167 1.1330001 0.4441981
-0.0220512 0.26506993 1.126 0.4441981
-0.014249386 0.26567918 1.1263125 0.4441981
-0.012836613 0.2621052 1.1316667 0.4441981
-0.0046593798 0.26261288 1.132 0.4441981
-0.029703088 0.26612607 1.1274445 0.4441981
-0.0057381154 0.26625997 1.1265 0.4441981
-0.035200074 0.27000648 1.1242501 0.4441981
-0.03201491 0.26911816 1.125 0.4441981
-0.027662437 0.26840052 1.1220001 0.4441981
-0.025528887 0.26840052 1.1220001 0.4441981
-0.038011152 0.27291355 1.1179167 0.4441981
-0.030305577 0.273128 1.1182858 0.4441981
-0.019145288 0.2707752 1.123 0.4441981
-0.0041051782 0.21565725 1.173125 0.15962994
-0.01326571 0.21802637 1.1693751 0.15962994
-0.0070254528 0.21819142 1.1673 0.15962994
-0.03101757 0.21943666 1.1680001 0.15962994
-0.01994656 0.21981242 1.1700001 0.15962994
0.0010373624 0.22408484 1.1774286 0.15962994
-0.030946754 0.22336696 1.1653334 0.15962994
-0.027836161 0.22509141 1.1743335 0.15962994
-0.024437912 0.2235311 1.1720001 0.15962994
-0.021664459 0.22516072 1.1666 0.15962994
-0.014804638 0.22417469 1.1654285 0.15962994
-0.0043527386 0.2240628 1.1654999 0.15962994
-0.010971726 0.22604311 1.1620001 0.15962994
-0.0068601058 0.2274978 1.1605713 0.15962994
-0.027401829 0.22977978 1.1716667 0.15962994
7.6858552e-05 0.22871175 1.1700001 0.15962994
0.0034228493 0.2304125 1.173 0.15962994
-0.027827887 0.23420204 1.1672858 0.15962994
-0.023010358 0.23199336 1.1641428 0.15962994
-0.015413026 0.23079257 1.1636667 0.15962994
-0.013336491 0.23415478 1.1593333 0.15962994
-0.0048305984 0.23261461 1.157077 0.15962994
0.0022970415 0.23401979 1.1668891 0.15962994
-0.020502822 0.23437257 1.1595 0.15962994
-0.006503161 0.23585376 1.15325 0.15962994
7.6333024e-05 0.23598638 1.1620001 0.15962994
-0.027573209 0.239558 1.1632501 0.15962994
-0.023419574 0.2400115 1.1583334 0.15962994
-0.016424775 0.23717105 1.1570001 0.15962994
0.0020042595 0.24070257 1.158125 0.15962994
0.0033936687 0.23840098 1.1630001 0.15962994
-0.028151697 0.24259821 1.1597999 0.15962994
-0.020586638 0.24218044 1.1524285 0.15962994
-0.01416379 0.24163273 1.1520625 0.15962994
-0.0053969459 0.24144918 1.1511877 0.15962994
7.5676115e-05 0.24381229 1.152 0.15962994
-0.027425297 0.24707061 1.1570001 0.15962994
-0.024083437 0.24554633 1.1550001 0.15962994
-0.014107875 0.24613391 1.1475 0.15962994
-0.0064704311 0.24609816 1.1473334 0.15962994
0.049392998 0.21047315 1.1578001 0.21793681
0.043204326 0.21837553 1.1674287 0.21793681
0.046578176 0.21545611 1.1645 0.21793681
0.047195397 0.21761611 1.1525 0.21793681
0.047117587 0.21860695 1.1596667 0.21793681
0.04071416 0.22195269 1.1656667 0.21793681
0.042351916 0.22328278 1.158 0.21793681
0.036807287 0.22803009 1.159 0.21793681
0.039232057 0.22362927 1.1440001 0.21793681
0.041843653 0.22020835 1.1265 0.21793681
0.039574996 0.22777846 1.154 0.21793681
0.041456949 0.22361088 1.1256667 0.21793681
0.036180973 0.23260683 1.15075 0.21793681
0.040073037 0.22658506 1.1370001 0.21793681
0.042204075 0.22639832 1.1190001 0.21793681
0.039094884 0.23043458 1.1400001 0.21793681
0.036970291 0.23395641 1.1413335 0.21793681
0.038580477 0.23168012 1.125 0.21793681
0.040466364 0.23023856 1.118 0.21793681
0.042442631 0.18493484 1.1977333 0.15564995
0.026188744 0.18799387 1.194 0.15564995
0.034135364 0.18799387 1.194 0.15564995
0.038676284 0.18799387 1.194 0.15564995
0.0023394183 0.19257706 1.1891818 0.15564995
0.010258383 0.19295707 1.189625 0.15564995
0.018183721 0.1930443 1.1901666 0.15564995
0.025853995 0.1923338 1.1906154 0.15564995
0.034025926 0.19304399 1.1901667 0.15564995
0.041973386 0.19316861 1.1909376 0.15564995
0.0023331589 0.1957553 1.1860001 0.15564995
0.0271409 0.1957553 1.1860001 0.15564995
0.0023270932 0.20086534 1.1829168 0.15564995
0.010235154 0.19817752 1.187 0.15564995
0.018073594 0.2008788 1.1830001 0.15564995
0.025950022 0.19978501 1.1831667 0.15564995
0.033501703 0.20170777 1.1831429 0.15564995
0.035071436 0.19934784 1.18725 0.15564995
0.041843362 0.19821925 1.18725 0.15564995
0.010201619 0.20201938 1.1830835 0.15564995
0.041381638 0.20176964 1.1828183 0.15564995
0.025837807 0.20339504 1.1780001 0.15564995
0.0314379 0.20339504 1.1780001 0.15564995
0.0017603789 0.20650105 1.1797501 0.15564995
0.010166172 0.20580965 1.179 0.15564995
0.018012956 0.20580965 1.179 0.15564995
0.025771409 0.20844868 1.1749376 0.15564995
0.033090051 0.20993537 1.177 0.15564995
0.034827497 0.20693064 1.179 0.15564995
0.040432338 0.20693062 1.179 0.15564995
0.0025964337 0.21028323 1.1773751 0.15564995
0.010136639 0.20969851 1.1756667 0.15564995
0.017942511 0.20947911 1.1744447 0.15564995
0.0016771201 0.21646324 1.1777143 0.15564995
0.010154681 0.21454972 1.1777501 0.15564995
