# .PCD v0.7 - Point Cloud Data file format
VERSION 0.7
FIELDS x y z rgba
SIZE 4 4 4 4
TYPE F F F U
COUNT 1 1 1 1
WIDTH 1141
HEIGHT 1
VIEWPOINT 0 0 0 1 0 0 0
POINTS 1141
DATA ascii
-0.24271752 0.25727332 1.12 4287337112
-0.24058777 0.25727332 1.12 4286745741
-0.23867093 0.257503 1.1210001 4285562744
-0.23632827 0.25727332 1.12 4284839787
-0.23378031 0.25681388 1.118 4282207812
-0.23123996 0.25635448 1.1160001 4280695855
-0.22624359 0.25313854 1.102 4281355066
-0.22313106 0.25199002 1.097 4281816128
-0.22084355 0.2517603 1.0960001 4281883202
-0.21836023 0.2513009 1.0940001 4281422908
-0.21608225 0.25107118 1.0930001 4281159738
-0.21400385 0.25107118 1.0930001 4281028154
-0.21192543 0.25107118 1.0930001 4281421888
-0.21003902 0.2513009 1.0940001 4281683515
-0.20795871 0.2513009 1.0940001 4282208566
-0.20550203 0.2508415 1.092 4282339112
-0.20268038 0.24992265 1.0880001 4285167426
-0.20005833 0.24923353 1.085 4285562183
-0.19799513 0.24923353 1.085 4281615130
-0.1962931 0.24969295 1.087 4280430866
-0.19529819 0.25107118 1.0930001 4281549357
-0.19357336 0.25153059 1.095 4282668614
-0.19236554 0.25267914 1.1 4282865995
-0.19061977 0.25313854 1.102 4282538311
-0.18852425 0.25313854 1.102 4281749559
-0.18659791 0.25336826 1.103 4281355567
-0.18516958 0.25428709 1.107 4281092648
-0.18306455 0.25428709 1.107 4280697890
-0.18194033 0.25566536 1.113 4280171293
-0.1803086 0.25635448 1.1160001 4279644697
-0.17930411 0.25796244 1.123 4279512343
-0.17764196 0.25865155 1.126 4279643929
-0.17565668 0.25888127 1.1270001 4279906842
-0.1742834 0.26002979 1.1320001 4280037148
-0.17289114 0.26117834 1.1370001 4280824108
-0.17087923 0.26140806 1.138 4282270534
-0.16886349 0.26163778 1.1390001 4286020478
-0.16640492 0.26117834 1.1370001 4286546822
-0.1640984 0.26094866 1.136 4286611846
-0.16165313 0.26048923 1.1340001 4286875018
-0.15949675 0.26048923 1.1340001 4287466642
-0.15747912 0.26071894 1.1350001 4287927193
-0.15532085 0.26071894 1.1350001 4288321438
-0.15316258 0.26071894 1.1350001 4288387486
-0.15087129 0.26048923 1.1340001 4288650658
-0.14871491 0.26048923 1.1340001 4288913830
-0.1464293 0.26025954 1.133 4288913828
-0.14414749 0.26002979 1.1320001 4288782242
-0.14199492 0.26002979 1.1320001 4288519068
-0.13971883 0.25980011 1.131 4288386966
-0.1380547 0.26071894 1.1350001 4288648598
-0.13589643 0.26071894 1.1350001 4287990658
-0.133856 0.26094866 1.136 4287004517
-0.13169582 0.26094866 1.136 4286543948
-0.1293076 0.26048923 1.1340001 4286544442
-0.12692697 0.26002979 1.1320001 4286741552
-0.12422328 0.25888127 1.1270001 4286741544
-0.12132197 0.25727332 1.12 4286609443
-0.11887296 0.2565842 1.1170001 4287201584
-0.11633083 0.25566536 1.113 4287135536
-0.11390654 0.25497624 1.11 4287135286
-0.11159438 0.25451681 1.108 4287069494
-0.10938863 0.25428709 1.107 4287004214
-0.10699286 0.253598 1.1040001 4286806835
-0.10489354 0.253598 1.1040001 4286609455
-0.10288734 0.25382769 1.105 4286412076
-0.10078612 0.25382769 1.105 4286016805
-0.098774202 0.25405741 1.1060001 4286608943
-0.096671075 0.25405741 1.1060001 4286871345
-0.09473896 0.25451681 1.108 4286607660
-0.092715628 0.2547465 1.1090001 4286212388
-0.090606801 0.2547465 1.1090001 4286343461
-0.088418171 0.25451681 1.108 4286935340
-0.086311243 0.25451681 1.108 4286671398
-0.084204316 0.25451681 1.108 4285750037
-0.082097389 0.25451681 1.108 4285355279
-0.080134846 0.25497624 1.11 4285815828
-0.078164704 0.25543565 1.1120001 4285750548
-0.07605017 0.25543565 1.1120001 4286343199
-0.073869154 0.25520593 1.1110001 4287330094
-0.071691923 0.25497624 1.11 4286870056
-0.069581196 0.25497624 1.11 4286739499
-0.067348897 0.25451681 1.108 4286543149
-0.06524197 0.25451681 1.108 4286412334
-0.063078061 0.25428709 1.107 4286412336
-0.060973037 0.25428709 1.107 4286478129
-0.058814835 0.25405741 1.1060001 4286478899
-0.056660429 0.25382769 1.105 4286347313
-0.054559208 0.25382769 1.105 4286018348
-0.052410513 0.253598 1.1040001 4285689381
-0.050311189 0.253598 1.1040001 4285557795
-0.048255537 0.25382769 1.105 4285952038
-0.046112549 0.253598 1.1040001 4286215210
-0.044053093 0.25382769 1.105 4286609456
-0.042065766 0.25451681 1.108 4286411823
-0.039994907 0.2547465 1.1090001 4287003449
-0.038056884 0.25589505 1.1140001 4286345521
-0.036196638 0.25773275 1.1220001 4286148410
-0.03421488 0.25888127 1.1270001 4285886546
-0.032271028 0.26048923 1.1340001 4286018918
-0.030247442 0.26163778 1.1390001 4286742394
-0.028081566 0.26163778 1.1390001 4287334794
-0.025870183 0.26117834 1.1370001 4287597715
-0.023645557 0.26048923 1.1340001 4287597717
-0.021470238 0.26025954 1.133 4287664021
-0.019315772 0.26025954 1.133 4287861399
-0.017161304 0.26025954 1.133 4287861912
-0.015020084 0.26048923 1.1340001 4288125085
-0.01287506 0.26071894 1.1350001 4288256419
-0.010716789 0.26071894 1.1350001 4288388005
-0.0085509792 0.26048923 1.1340001 4288585125
-0.0063946107 0.26048923 1.1340001 4288519583
-0.0042382427 0.26048923 1.1340001 4288782751
-0.0020855463 0.26094866 1.136 4289374882
7.4690746e-05 0.26117834 1.1370001 4281939501
0.0022367637 0.26117834 1.1370001 4280162831
0.013265153 0.26554281 1.156 4282861132
0.015463356 0.26554281 1.156 4289572279
0.017554611 0.26393485 1.149 4288782765
0.019481806 0.26048923 1.1340001 4288586154
0.021619095 0.26025954 1.133 4288323493
0.023731595 0.25980011 1.131 4288258468
0.02583649 0.2593407 1.1290001 4286942354
0.027908992 0.25865155 1.126 4285034361
0.029996773 0.25819215 1.1240001 4284836729
0.031905413 0.25635448 1.1160001 4285100160
0.033753138 0.25428709 1.107 4285693061
0.035760988 0.253598 1.1040001 4285561978
0.03768884 0.25244945 1.0990001 4285297765
0.039670069 0.2517603 1.0960001 4285231445
0.04171608 0.25153059 1.095 4285230924
0.043518297 0.24992265 1.0880001 4284309046
0.045419592 0.24900381 1.0840001 4285294658
0.047393281 0.24854439 1.082 4286347087
0.049313661 0.24785528 1.079 4286543696
0.051270232 0.24739586 1.077 4286543946
0.053268705 0.24716616 1.0760001 4286478145
0.055314783 0.24716616 1.0760001 4286214708
0.057307553 0.24693644 1.075 4286214444
0.059351727 0.24693644 1.075 4286543149
0.06133879 0.24670672 1.074 4286279463
0.063381061 0.24670672 1.074 4285359129
0.065362424 0.24647702 1.0730001 4285556767
0.067339979 0.24624731 1.072 4285820967
0.069313735 0.24601761 1.0710001 4286281781
0.071416922 0.24624731 1.072 4286083900
0.073523916 0.24647702 1.0730001 4285425732
0.075986825 0.24785528 1.079 4284899151
0.077821642 0.24716616 1.0760001 4285161579
0.08075843 0.24992265 1.0880001 4283516516
0.083131842 0.2508415 1.092 4281279053
0.085754551 0.25244945 1.0990001 4282069083
0.088403881 0.25405741 1.1060001 4282398297
0.090998001 0.25543565 1.1120001 4281938767
0.09328001 0.25589505 1.1140001 4284439404
0.095569618 0.25635448 1.1160001 4287005328
0.097691759 0.25635448 1.1160001 4286873742
0.09990333 0.2565842 1.1170001 4287400597
0.10202737 0.2565842 1.1170001 4287532696
0.10405818 0.25635448 1.1160001 4287466903
0.10627545 0.2565842 1.1170001 4287664280
0.10849655 0.25681388 1.118 4288124831
0.11072144 0.2570436 1.1190001 4288388003
0.11284928 0.2570436 1.1190001 4288453796
0.11507988 0.25727332 1.12 4288585636
0.11720962 0.25727332 1.12 4288848808
0.11933937 0.25727332 1.12 4288848808
0.12146912 0.25727332 1.12 4288914601
0.12370922 0.257503 1.1210001 4289045933
0.12584087 0.257503 1.1210001 4289111726
0.12797251 0.257503 1.1210001 4289111726
0.13010417 0.257503 1.1210001 4289111726
0.13223581 0.257503 1.1210001 4289111728
0.13436747 0.257503 1.1210001 4289111728
0.13649911 0.257503 1.1210001 4289111726
0.13863075 0.257503 1.1210001 4289177519
0.1407624 0.257503 1.1210001 4289243312
0.14289404 0.257503 1.1210001 4289243312
0.1450257 0.257503 1.1210001 4289177519
0.14728862 0.25773275 1.1220001 4289177519
0.14942217 0.25773275 1.1220001 4289046703
0.15155572 0.25773275 1.1220001 4289112496
0.15382625 0.25796244 1.123 4289244082
0.15596171 0.25796244 1.123 4289309875
0.15809715 0.25796244 1.123 4289375668
0.1602326 0.25796244 1.123 4289441461
0.16236806 0.25796244 1.123 4289441461
0.1645035 0.25796244 1.123 4289441461
0.16663896 0.25796244 1.123 4289310388
0.16877441 0.25796244 1.123 4289244595
0.17090985 0.25796244 1.123 4289507767
0.17304531 0.25796244 1.123 4289376181
0.17518076 0.25796244 1.123 4289310388
0.1773162 0.25796244 1.123 4289376181
0.17929186 0.25773275 1.1220001 4289441974
0.18142541 0.25773275 1.1220001 4289507767
0.18355896 0.25773275 1.1220001 4289441972
0.18552701 0.257503 1.1210001 4289376179
0.18765865 0.257503 1.1210001 4289310385
0.18979031 0.257503 1.1210001 4289047467
0.19209315 0.25773275 1.1220001 4288586916
0.19439982 0.25796244 1.123 4288257949
0.19758531 0.2593407 1.1290001 4288323740
-0.36370912 0.26218238 1.1320001 4289244595
-0.36155656 0.26218238 1.1320001 4286086280
-0.35686404 0.26032951 1.1240001 4286151819
-0.35409549 0.2598663 1.1220001 4288126381
-0.35133457 0.25940305 1.12 4288126127
-0.34920484 0.25940305 1.12 4285494920
-0.34707507 0.25940305 1.12 4285626506
-0.34463736 0.25917146 1.1190001 4285561224
-0.34250951 0.25917146 1.1190001 4285100414
-0.34068584 0.25940305 1.12 4285626243
-0.3388584 0.25963467 1.1210001 4286810000
-0.33852902 0.26102436 1.1270001 4285099636
-0.33877382 0.26287723 1.1350001 4284046688
-0.33780184 0.26380366 1.1390001 4289968054
-0.33534127 0.26357204 1.138 4291020224
-0.3331773 0.26357204 1.138 4291086017
-0.31495538 0.26102436 1.1270001 4288520620
-0.31281233 0.26102436 1.1270001 4284835959
-0.30956662 0.26009789 1.123 4285296512
-0.3066099 0.25940305 1.12 4285033856
-0.30475202 0.25963467 1.1210001 4284968576
-0.30262038 0.25963467 1.1210001 4284836731
-0.30048874 0.25963467 1.1210001 4284376178
-0.29835707 0.25963467 1.1210001 4288652207
-0.29622543 0.25963467 1.1210001 4290296518
-0.29409379 0.25963467 1.1210001 4290361795
-0.29196215 0.25963467 1.1210001 4290230207
-0.28983048 0.25963467 1.1210001 4290361536
-0.28744218 0.25940305 1.12 4290295741
-0.28556719 0.25963467 1.1210001 4290229948
-0.28343555 0.25963467 1.1210001 4290229948
-0.28155482 0.2598663 1.1220001 4290229948
-0.27917224 0.25963467 1.1210001 4290229948
-0.2770406 0.25963467 1.1210001 4290164157
-0.27490896 0.25963467 1.1210001 4290098364
-0.27253395 0.25940305 1.12 4289901242
-0.27064565 0.25963467 1.1210001 4290032828
-0.26851401 0.25963467 1.1210001 4290098623
-0.26638237 0.25963467 1.1210001 4290032830
-0.26425073 0.25963467 1.1210001 4289901760
-0.2616514 0.25917146 1.1190001 4289967553
-0.25952357 0.25917146 1.1190001 4289901760
-0.25739571 0.25917146 1.1190001 4289770174
-0.255496 0.25940305 1.12 4289638588
-0.25359246 0.25963467 1.1210001 4289507513
-0.2512365 0.25940305 1.12 4289375927
-0.24910675 0.25940305 1.12 4289113009
-0.24675649 0.25917146 1.1190001 4288849583
-0.24462864 0.25917146 1.1190001 4288520618
-0.2425008 0.25917146 1.1190001 4287994274
-0.24037296 0.25917146 1.1190001 4287403159
-0.23824511 0.25917146 1.1190001 4286746250
-0.23611726 0.25917146 1.1190001 4285694843
-0.23378031 0.25893986 1.118 4282931539
-0.23123996 0.25847664 1.1160001 4281221689
-0.22644889 0.25546569 1.103 4281091127
-0.22313106 0.25407603 1.097 4281355066
-0.22084355 0.25384441 1.0960001 4281948482
-0.21816064 0.2531496 1.0930001 4281291064
-0.21568686 0.25268638 1.0910001 4281159736
-0.21361226 0.25268638 1.0910001 4281028152
-0.21153764 0.25268638 1.0910001 4281224507
-0.20965503 0.252918 1.092 4280960308
-0.20776863 0.2531496 1.0930001 4281880121
-0.20569022 0.2531496 1.0930001 4282076720
-0.20323925 0.25268638 1.0910001 4283523386
-0.20098025 0.25245476 1.09 4282668079
-0.19890755 0.25245476 1.09 4280301341
-0.19737661 0.2531496 1.0930001 4281814588
-0.19583425 0.25384441 1.0960001 4282604366
-0.19392692 0.25407603 1.097 4281880389
-0.19219065 0.25453928 1.0990001 4282143561
-0.19027382 0.25477087 1.1 4282143814
-0.1881821 0.25477087 1.1 4281222964
-0.18625957 0.25500247 1.1010001 4281881145
-0.18483503 0.25592893 1.105 4280828453
-0.1838914 0.25755018 1.1120001 4280368155
-0.18177687 0.25755018 1.1120001 4280170265
-0.1803086 0.25847664 1.1160001 4279907094
-0.17914446 0.2598663 1.1220001 4279709204
-0.17732643 0.26032951 1.1240001 4280038169
-0.17534493 0.26056111 1.125 4280366880
-0.17366756 0.26125595 1.128 4280365600
-0.17213084 0.26218238 1.1320001 4281021740
-0.17012843 0.26241401 1.133 4282270273
-0.16827048 0.26287723 1.1350001 4284835686
-0.16596586 0.2626456 1.1340001 4285822327
-0.16366504 0.26241401 1.133 4286479746
-0.16136801 0.26218238 1.1320001 4286940298
-0.15921545 0.26218238 1.1320001 4287532437
-0.15706289 0.26218238 1.1320001 4287992988
-0.15491031 0.26218238 1.1320001 4288124061
-0.15275775 0.26218238 1.1320001 4288189854
-0.15100431 0.26287723 1.1350001 4288650918
-0.14832149 0.26195076 1.131 4288848295
-0.14604157 0.26171917 1.13 4288585122
-0.14427483 0.26241401 1.133 4288387997
-0.14199492 0.26218238 1.1320001 4288190616
-0.13971883 0.26195076 1.131 4287795597
-0.13756818 0.26195076 1.131 4288320397
-0.13553724 0.26218238 1.1320001 4288123008
-0.13338466 0.26218238 1.1320001 4287399786
-0.1312321 0.26218238 1.1320001 4286676052
-0.12907954 0.26218238 1.1320001 4286216000
-0.12681486 0.26195076 1.131 4286019125
-0.12422328 0.26102436 1.1270001 4286084652
-0.12164693 0.26009789 1.123 4285887272
-0.11929864 0.25963467 1.1210001 4285163296
-0.11674892 0.25870824 1.1170001 4284571677
-0.11431701 0.2580134 1.1140001 4283914009
-0.11189653 0.25731859 1.1110001 4283519000
-0.10958627 0.25685534 1.1090001 4283387673
-0.10728361 0.25639212 1.107 4283387673
-0.10479853 0.25546569 1.103 4283256857
-0.10270111 0.25546569 1.103 4283191062
-0.10078612 0.25592893 1.105 4284046626
-0.098684892 0.25592893 1.105 4284440612
-0.096583672 0.25592893 1.105 4284835113
-0.09473896 0.25662374 1.108 4285623600
-0.092799231 0.25708699 1.11 4285885743
-0.090688504 0.25708699 1.11 4286017069
-0.08865758 0.25731859 1.1110001 4286607664
-0.086544946 0.25731859 1.1110001 4286409513
-0.084432311 0.25731859 1.1110001 4286014496
-0.082319684 0.25731859 1.1110001 4286737961
-0.080279239 0.25755018 1.1120001 4287067183
-0.078235 0.2577818 1.113 4286015008
-0.076118559 0.2577818 1.113 4285686560
-0.074068613 0.2580134 1.1140001 4286411566
-0.07188569 0.2577818 1.113 4286280241
-0.069706574 0.25755018 1.1120001 4285886769
-0.067470461 0.25708699 1.11 4284045597
-0.065300852 0.25685534 1.1090001 4283520282
-0.063135043 0.25662374 1.108 4282862097
-0.061028115 0.25662374 1.108 4282335753
-0.05886801 0.25639212 1.107 4282072583
-0.056711711 0.25616053 1.1060001 4281809411
-0.054608583 0.25616053 1.1060001 4281348864
-0.05250546 0.25616053 1.1060001 4280822528
-0.050402336 0.25616053 1.1060001 4281020160
-0.048299212 0.25616053 1.1060001 4281743104
-0.046237852 0.25639212 1.107 4282598410
-0.044172693 0.25662374 1.108 4283650585
-0.042179663 0.25731859 1.1110001 4284045346
-0.040103097 0.25755018 1.1120001 4285163316
-0.038159374 0.25870824 1.1170001 4285163062
-0.036261156 0.26032951 1.1240001 4285623623
-0.03421488 0.26102436 1.1270001 4285558359
-0.03224257 0.26241401 1.133 4285822058
-0.030114662 0.2626456 1.1340001 4286611323
-0.027958293 0.2626456 1.1340001 4287137930
-0.025756419 0.26218238 1.1320001 4287400851
-0.02356215 0.26171917 1.13 4287466644
-0.021394439 0.26148757 1.1290001 4287532435
-0.019247578 0.26148757 1.1290001 4287729814
-0.017115865 0.26171917 1.13 4287927193
-0.014980348 0.26195076 1.131 4288058779
-0.012841028 0.26218238 1.1320001 4288124320
-0.010688463 0.26218238 1.1320001 4288321699
-0.0085283574 0.26195076 1.131 4288519332
-0.0063776942 0.26195076 1.131 4288453790
-0.004230768 0.26218238 1.1320001 4288782494
-0.0020818745 0.2626456 1.1340001 4289440421
7.4625059e-05 0.26310882 1.136 4281742124
0.0022347963 0.26310882 1.136 4280097297
0.013288103 0.26820424 1.1580001 4282795339
0.015490109 0.26820424 1.1580001 4289769147
0.017554611 0.26611975 1.149 4289111218
0.019481806 0.2626456 1.1340001 4288651179
0.021600012 0.26218238 1.1320001 4288453796
0.023710612 0.26171917 1.13 4288520612
0.02583649 0.26148757 1.1290001 4287665301
0.027908992 0.2607927 1.126 4285889149
0.030023461 0.26056111 1.125 4284968050
0.031962592 0.25893986 1.118 4284705396
0.033814117 0.25685534 1.1090001 4285429890
0.035793379 0.25592893 1.105 4285890694
0.037723131 0.25477087 1.1 4286153341
0.03970626 0.25407603 1.097 4285363045
0.04171608 0.25361282 1.095 4284770130
0.043558296 0.25222316 1.0890001 4283387703
0.045461494 0.2512967 1.085 4284176704
0.047480885 0.25106511 1.0840001 4285426257
0.049496472 0.25083351 1.0830001 4285886808
0.051508255 0.25060189 1.082 4286150231
0.053565744 0.25060189 1.082 4286084688
0.05562323 0.25060189 1.082 4285821254
0.057627406 0.25037029 1.0810001 4285558074
0.059627779 0.2501387 1.08 4285952314
0.061681464 0.2501387 1.08 4285885238
0.063676134 0.24990705 1.079 4284701736
0.065667003 0.24967545 1.0780001 4283847716
0.067654066 0.24944384 1.077 4284243249
0.069702044 0.24944384 1.077 4284703804
0.07175003 0.24944384 1.077 4284637506
0.073935047 0.24990705 1.079 4284439627
0.075564288 0.24851741 1.0730001 4284504920
0.078038611 0.24990705 1.079 4284635498
0.081055336 0.252918 1.092 4281674312
0.083360225 0.25361282 1.095 4281739856
0.085988641 0.25523409 1.102 4282135127
0.088563748 0.25662374 1.108 4282332503
0.090998001 0.25755018 1.1120001 4282266960
0.09328001 0.2580134 1.1140001 4285820803
0.095569618 0.25847664 1.1160001 4287268500
0.097691759 0.25847664 1.1160001 4287334804
0.099813901 0.25847664 1.1160001 4287729816
0.10193604 0.25847664 1.1160001 4287532696
0.10405818 0.25847664 1.1160001 4287532696
0.10618032 0.25847664 1.1160001 4287730075
0.10830246 0.25847664 1.1160001 4288124833
0.11052354 0.25870824 1.1170001 4288388003
0.11274843 0.25893986 1.118 4288453796
0.11497713 0.25917146 1.1190001 4288585636
0.11720962 0.25940305 1.12 4288848808
0.11933937 0.25940305 1.12 4288914601
0.12146912 0.25940305 1.12 4289046187
0.12359887 0.25940305 1.12 4289177519
0.12572861 0.25940305 1.12 4289243312
0.1277442 0.25917146 1.1190001 4289243314
0.12987204 0.25917146 1.1190001 4289243314
0.13199988 0.25917146 1.1190001 4289243314
0.13424759 0.25940305 1.12 4289243314
0.13625558 0.25917146 1.1190001 4289243312
0.13838342 0.25917146 1.1190001 4289309105
0.14051126 0.25917146 1.1190001 4289374898
0.14263912 0.25917146 1.1190001 4289374898
0.14476696 0.25917146 1.1190001 4289374898
0.14702606 0.25940305 1.12 4289374898
0.14915581 0.25940305 1.12 4289178289
0.15142064 0.25963467 1.1210001 4289178289
0.15368927 0.2598663 1.1220001 4289309875
0.15582281 0.2598663 1.1220001 4289375668
0.15795636 0.2598663 1.1220001 4289441461
0.16008991 0.2598663 1.1220001 4289441461
0.16207889 0.25963467 1.1210001 4289441461
0.16421053 0.25963467 1.1210001 4289441461
0.16649055 0.2598663 1.1220001 4289310388
0.1686241 0.2598663 1.1220001 4289310388
0.17075765 0.2598663 1.1220001 4289376181
0.17273712 0.25963467 1.1210001 4289310388
0.17471276 0.25940305 1.12 4289310388
0.17668462 0.25917146 1.1190001 4289376181
0.17881247 0.25917146 1.1190001 4289441974
0.18110201 0.25940305 1.12 4289507767
0.18306816 0.25917146 1.1190001 4289507765
0.185196 0.25917146 1.1190001 4289441972
0.18732385 0.25917146 1.1190001 4289507764
0.18945169 0.25917146 1.1190001 4289244846
0.19175074 0.25940305 1.12 4288718502
0.19388048 0.25940305 1.12 4288323742
0.19758531 0.26148757 1.1290001 4288257947
-0.36274526 0.26363444 1.1290001 4287994528
-0.36059839 0.26363444 1.1290001 4285230971
-0.35622904 0.26199985 1.1220001 4287204509
-0.35346434 0.26153281 1.12 4289770952
-0.35102087 0.26129931 1.1190001 4286152337
-0.34889305 0.26129931 1.1190001 4285560713
-0.34645531 0.26106581 1.118 4285297541
-0.34432936 0.26106581 1.118 4285692810
-0.34189731 0.26083228 1.1170001 4285495172
-0.34007746 0.26106581 1.118 4284836727
-0.33855611 0.26153281 1.12 4287665311
-0.33822861 0.26293388 1.126 4285099636
-0.33787835 0.26433495 1.1320001 4288060318
-0.33720866 0.26550251 1.1370001 4291284429
-0.33504659 0.26550251 1.1370001 4290494652
-0.31411698 0.26246688 1.1240001 4285559936
-0.31197965 0.26246688 1.1240001 4285230719
-0.30901533 0.26176631 1.1210001 4284968063
-0.30606237 0.26106581 1.118 4285165442
-0.30420831 0.26129931 1.1190001 4284902781
-0.3023504 0.26153281 1.12 4284836729
-0.30022067 0.26153281 1.12 4284770934
-0.29809093 0.26153281 1.12 4289704381
-0.29596117 0.26153281 1.12 4290033600
-0.29356909 0.26129931 1.1190001 4290230207
-0.29144123 0.26129931 1.1190001 4290164668
-0.28931338 0.26129931 1.1190001 4290229948
-0.28718555 0.26129931 1.1190001 4290229948
-0.28505769 0.26129931 1.1190001 4290164155
-0.28318271 0.26153281 1.12 4290164155
-0.28105295 0.26153281 1.12 4290229948
-0.27892321 0.26153281 1.12 4290229948
-0.27679345 0.26153281 1.12 4290229950
-0.27466372 0.26153281 1.12 4290164157
-0.27253395 0.26153281 1.12 4289967289
-0.27064565 0.26176631 1.1210001 4290098875
-0.26851401 0.26176631 1.1210001 4290098621
-0.26638237 0.26176631 1.1210001 4290032830
-0.26425073 0.26176631 1.1210001 4289901760
-0.2616514 0.26129931 1.1190001 4289967553
-0.25952357 0.26129931 1.1190001 4289967553
-0.25739571 0.26129931 1.1190001 4289836221
-0.255496 0.26153281 1.12 4289836221
-0.25336626 0.26153281 1.12 4289836219
-0.2512365 0.26153281 1.12 4289639353
-0.24888434 0.26129931 1.1190001 4289376181
-0.24631546 0.26083228 1.1170001 4289112755
-0.24419142 0.26083228 1.1170001 4288783790
-0.24206738 0.26083228 1.1170001 4288191653
-0.23994334 0.26083228 1.1170001 4287600284
-0.23803219 0.26106581 1.118 4287206550
-0.23590626 0.26106581 1.118 4286154631
-0.23357122 0.26083228 1.1170001 4282864982
-0.23123996 0.26059878 1.1160001 4282273357
-0.2268595 0.25803015 1.105 4280892983
-0.22353786 0.25662908 1.0990001 4281025334
-0.22084355 0.25592855 1.0960001 4281487161
-0.21796104 0.25499451 1.092 4281619770
-0.21548915 0.25452748 1.09 4281554234
-0.21322067 0.25429398 1.0890001 4281159991
-0.21114987 0.25429398 1.0890001 4281027639
-0.20946305 0.25476098 1.0910001 4280829233
-0.20757852 0.25499451 1.092 4281486134
-0.20569022 0.25522801 1.0930001 4281485615
-0.2037981 0.25546151 1.0940001 4282537271
-0.20171779 0.25546151 1.0940001 4282076979
-0.19963749 0.25546151 1.0940001 4282473799
-0.19773777 0.25569504 1.095 4281947462
-0.19583425 0.25592855 1.0960001 4282144842
-0.19375014 0.25592855 1.0960001 4281947463
-0.19166604 0.25592855 1.0960001 4281617985
-0.18975489 0.25616205 1.097 4282078021
-0.18783996 0.25639558 1.098 4281617209
-0.18625957 0.25709611 1.1010001 4280301089
-0.1850023 0.25826365 1.1060001 4280498720
-0.18405676 0.25989825 1.113 4279971603
-0.18194033 0.25989825 1.113 4280037135
-0.1803086 0.26059878 1.1160001 4280102928
-0.17866546 0.26129931 1.1190001 4280102160
-0.17685314 0.26176631 1.1210001 4280562714
-0.17487736 0.26199985 1.1220001 4281088806
-0.17305173 0.26246688 1.1240001 4280956710
-0.17213084 0.26433495 1.1320001 4280494880
-0.16967796 0.26386794 1.13 4282336318
-0.1678257 0.26433495 1.1320001 4284769891
-0.16567314 0.26433495 1.1320001 4286151546
-0.16337614 0.26410145 1.131 4286940551
-0.16108291 0.26386794 1.13 4287203470
-0.15893415 0.26386794 1.13 4287598230
-0.15664665 0.26363444 1.1290001 4288058527
-0.15449978 0.26363444 1.1290001 4288518821
-0.15221797 0.26340091 1.128 4288321442
-0.15007302 0.26340091 1.128 4288387492
-0.14792806 0.26340091 1.128 4288585125
-0.14565387 0.26316741 1.1270001 4288782502
-0.1435108 0.26316741 1.1270001 4289045673
-0.14161862 0.26363444 1.1290001 4288914341
-0.13934822 0.26340091 1.128 4288519320
-0.13720326 0.26340091 1.128 4288189579
-0.13517804 0.26363444 1.1290001 4287991681
-0.13303119 0.26363444 1.1290001 4287399282
-0.13100025 0.26386794 1.13 4286610782
-0.12885149 0.26386794 1.13 4286150480
-0.12659059 0.26363444 1.1290001 4285756225
-0.12433351 0.26340091 1.128 4285098545
-0.12208023 0.26316741 1.1270001 4284244005
-0.11972433 0.26270038 1.125 4281020672
-0.11737603 0.26223335 1.123 4280823808
-0.11493273 0.26153281 1.12 4280692480
-0.11240011 0.26059878 1.1160001 4280758528
-0.11008035 0.26013175 1.1140001 4280956422
-0.10757435 0.25919771 1.11 4281088521
-0.10517859 0.25849718 1.107 4281023496
-0.10279422 0.25779665 1.1040001 4280957701
-0.10087732 0.25826365 1.1060001 4280562176
-0.098774202 0.25826365 1.1060001 4280298752
-0.096758477 0.25849718 1.107 4280429824
-0.094909966 0.25919771 1.11 4281613315
-0.092966445 0.25966474 1.1120001 4282993169
-0.090933613 0.25989825 1.113 4284307486
-0.088896975 0.26013175 1.1140001 4286082609
-0.086856537 0.26036525 1.115 4286805304
-0.084736295 0.26036525 1.115 4286804789
-0.082616054 0.26036525 1.115 4286409515
-0.080568008 0.26059878 1.1160001 4286081066
-0.07851617 0.26083228 1.1170001 4286477107
-0.076392129 0.26083228 1.1170001 4286346294
-0.074334569 0.26106581 1.118 4284768037
-0.072144046 0.26083228 1.1170001 4282335238
-0.069957308 0.26059878 1.1160001 4280428288
-0.067713603 0.26013175 1.1140001 4280561920
-0.065418623 0.25943121 1.1110001 4280431360
-0.063192025 0.25896418 1.1090001 4280431360
-0.061083198 0.25896418 1.1090001 4280431360
-0.058921188 0.25873068 1.108 4280694277
-0.056762986 0.25849718 1.107 4281023242
-0.054608583 0.25826365 1.1060001 4280891656
-0.05250546 0.25826365 1.1060001 4280759556
-0.050402336 0.25826365 1.1060001 4280627968
-0.048386548 0.25873068 1.108 4280430336
-0.04627962 0.25873068 1.108 4280364544
-0.044252429 0.25919771 1.11 4280363776
-0.042255595 0.25989825 1.113 4280297216
-0.040211286 0.26036525 1.115 4280889350
-0.038261861 0.26153281 1.12 4281480975
-0.036325678 0.26293388 1.126 4282467365
-0.034275603 0.26363444 1.1290001 4285427549
-0.032185655 0.26410145 1.131 4285822317
-0.030008435 0.26386794 1.13 4286545791
-0.027859675 0.26386794 1.13 4287071883
-0.025665406 0.26340091 1.128 4287335058
-0.023499595 0.26316741 1.1270001 4287466390
-0.021356538 0.26316741 1.1270001 4287598230
-0.019213481 0.26316741 1.1270001 4287729814
-0.017085571 0.26340091 1.128 4287927193
-0.014953857 0.26363444 1.1290001 4287992988
-0.012806997 0.26363444 1.1290001 4288058527
-0.010660136 0.26363444 1.1290001 4288255906
-0.0085132765 0.26363444 1.1290001 4288453539
-0.0063664159 0.26363444 1.1290001 4288387997
-0.0042195553 0.26363444 1.1290001 4288716699
-0.0020782028 0.26433495 1.1320001 4289440421
7.4493677e-05 0.26480198 1.1340001 4281347882
0.0022347963 0.26526901 1.136 4280097297
0.013230729 0.26923871 1.153 4282860872
0.015423227 0.26923871 1.153 4289900985
0.017355995 0.26526901 1.136 4289439669
0.019413089 0.26386794 1.13 4288848045
0.021542769 0.26363444 1.1290001 4288321953
0.023647664 0.26316741 1.1270001 4288059032
0.025767837 0.26293388 1.126 4287862164
0.027884206 0.26270038 1.125 4287270027
0.029996773 0.26246688 1.1240001 4285954683
0.03199118 0.26129931 1.1190001 4284836464
0.0338751 0.25943121 1.1110001 4284376944
0.035858162 0.25849718 1.107 4284640116
0.037757427 0.25709611 1.1010001 4285362805
0.03970626 0.25616205 1.097 4285231210
0.041754179 0.25592855 1.0960001 4285427559
0.043558296 0.25429398 1.0890001 4284637782
0.045461494 0.25335991 1.085 4284966233
0.047480885 0.25312641 1.0840001 4285229404
0.049496472 0.25289288 1.0830001 4285230174
0.051508255 0.25265938 1.082 4284967511
0.053565744 0.25265938 1.082 4284441418
0.05562323 0.25265938 1.082 4284177983
0.057627406 0.25242588 1.0810001 4284243513
0.059682991 0.25242588 1.0810001 4285229378
0.061681464 0.25219238 1.08 4285689670
0.063676134 0.25195885 1.079 4284439863
0.065667003 0.25172535 1.0780001 4283125556
0.067716889 0.25172535 1.0780001 4283520576
0.069702044 0.25149181 1.077 4283586371
0.071816646 0.25172535 1.0780001 4283585607
0.073935047 0.25195885 1.079 4283585358
0.07640937 0.25335991 1.085 4283913562
0.078978837 0.25499451 1.092 4284109667
0.081055336 0.25499451 1.092 4280556083
0.083360225 0.25569504 1.095 4281740105
0.085988641 0.25732961 1.102 4281937486
0.088563748 0.25873068 1.108 4282398548
0.090998001 0.25966474 1.1120001 4283122269
0.093196273 0.25989825 1.113 4286610319
0.095398344 0.26013175 1.1140001 4287202707
0.097604223 0.26036525 1.115 4287466644
0.099724457 0.26036525 1.115 4287598230
0.1018447 0.26036525 1.115 4287598489
0.1038717 0.26013175 1.1140001 4287664282
0.10599003 0.26013175 1.1140001 4287861661
0.10820542 0.26036525 1.115 4288190626
0.11032565 0.26036525 1.115 4288388003
0.11254674 0.26059878 1.1160001 4288519589
0.11477163 0.26083228 1.1170001 4288717222
0.11700032 0.26106581 1.118 4288914601
0.11912626 0.26106581 1.118 4288980394
0.1212522 0.26106581 1.118 4289046187
0.12337815 0.26106581 1.118 4289177519
0.12550409 0.26106581 1.118 4289243312
0.12763004 0.26106581 1.118 4289243314
0.12975599 0.26106581 1.118 4289243314
0.13188192 0.26106581 1.118 4289309107
0.13412774 0.26129931 1.1190001 4289309107
0.13613382 0.26106581 1.118 4289374898
0.13825975 0.26106581 1.118 4289374898
0.1403857 0.26106581 1.118 4289440691
0.14251165 0.26106581 1.118 4289440691
0.14463758 0.26106581 1.118 4289506484
0.14676353 0.26106581 1.118 4289440691
0.14902264 0.26129931 1.1190001 4289309875
0.15142064 0.26176631 1.1210001 4289309875
0.15355229 0.26176631 1.1210001 4289375668
0.15568393 0.26176631 1.1210001 4289375668
0.15767479 0.26153281 1.12 4289441461
0.15980454 0.26153281 1.12 4289441461
0.16193429 0.26153281 1.12 4289441461
0.16406403 0.26153281 1.12 4289441461
0.16619378 0.26153281 1.12 4289376181
0.16832353 0.26153281 1.12 4289310388
0.17045328 0.26153281 1.12 4289310388
0.17242894 0.26129931 1.1190001 4289310388
0.17424479 0.26083228 1.1170001 4289376181
0.17636883 0.26083228 1.1170001 4289376181
0.17849287 0.26083228 1.1170001 4289441974
0.18077862 0.26106581 1.118 4289441974
0.18290457 0.26106581 1.118 4289507765
0.18503051 0.26106581 1.118 4289507765
0.18698904 0.26083228 1.1170001 4289639350
0.18911308 0.26083228 1.1170001 4289310639
0.19140834 0.26106581 1.118 4288718502
0.19353428 0.26106581 1.118 4288126363
0.19706029 0.26293388 1.126 4287928982
-0.36178133 0.26507506 1.126 4286810000
-0.35964018 0.26507506 1.126 4286086280
-0.35527658 0.26342717 1.1190001 4288980920
-0.35283312 0.26319176 1.118 4288718264
-0.35070717 0.26319176 1.118 4285231236
-0.34858125 0.26319176 1.118 4285692299
-0.34614539 0.26295635 1.1170001 4285429127
-0.34402135 0.26295635 1.1170001 4285692810
-0.34159127 0.26272094 1.1160001 4285627017
-0.33946911 0.26272094 1.1160001 4285626758
-0.33795154 0.26319176 1.118 4286415759
-0.33732748 0.26436883 1.123 4287402907
-0.33698291 0.26578128 1.1290001 4289969086
-0.33572578 0.26648751 1.1320001 4290758601
-0.33799335 0.27001873 1.1470001 4290560704
-0.33581227 0.27001873 1.1470001 4290166198
-0.31653571 0.26483965 1.125 4287402909
-0.31439647 0.26483965 1.125 4284836729
-0.31142449 0.26413342 1.1220001 4285428614
-0.30818832 0.26319176 1.118 4284836478
-0.30578861 0.26295635 1.1170001 4285099649
-0.30366457 0.26295635 1.1170001 4285034110
-0.30154052 0.26295635 1.1170001 4284639350
-0.29941648 0.26295635 1.1170001 4285626243
-0.29729244 0.26295635 1.1170001 4290296518
-0.29543266 0.26319176 1.118 4290099393
-0.29330671 0.26319176 1.118 4289967035
-0.29118079 0.26319176 1.118 4290230461
-0.28905484 0.26319176 1.118 4290295741
-0.28718555 0.26342717 1.1190001 4290229947
-0.28505769 0.26342717 1.1190001 4290229947
-0.28318271 0.26366258 1.12 4290164154
-0.28105295 0.26366258 1.12 4290229948
-0.27892321 0.26366258 1.12 4290229948
-0.27679345 0.26366258 1.12 4290164157
-0.27466372 0.26366258 1.12 4290098364
-0.27253395 0.26366258 1.12 4290033082
-0.27040422 0.26366258 1.12 4290098875
-0.26827449 0.26366258 1.12 4290164414
-0.26614472 0.26366258 1.12 4290098623
-0.26377925 0.26342717 1.1190001 4289967553
-0.26141757 0.26319176 1.118 4289967553
-0.25929162 0.26319176 1.118 4289967807
-0.25716567 0.26319176 1.118 4289902014
-0.25526786 0.26342717 1.1190001 4289902014
-0.25314003 0.26342717 1.1190001 4289902012
-0.25056353 0.26295635 1.1170001 4289836219
-0.24799468 0.2624855 1.115 4289638838
-0.24565391 0.2622501 1.1140001 4289310388
-0.24353558 0.2622501 1.1140001 4288915376
-0.24141724 0.2622501 1.1140001 4288389032
-0.2392989 0.2622501 1.1140001 4287863460
-0.23718056 0.2622501 1.1140001 4287534753
-0.23506223 0.2622501 1.1140001 4286878106
-0.23294389 0.2622501 1.1140001 4283259237
-0.23061834 0.26201469 1.113 4282536280
-0.2268595 0.26013139 1.105 4281352772
-0.22353786 0.25871891 1.0990001 4280892983
-0.22084355 0.25801265 1.0960001 4281026099
-0.21776146 0.25683558 1.0910001 4281488182
-0.21509376 0.25612935 1.0880001 4281422902
-0.21302487 0.25612935 1.0880001 4281160243
-0.21114987 0.25636476 1.0890001 4280962099
-0.20946305 0.25683558 1.0910001 4280764208
-0.20738845 0.25683558 1.0910001 4280763181
-0.20569022 0.25730643 1.0930001 4280696358
-0.2037981 0.25754184 1.0940001 4281551405
-0.20171779 0.25754184 1.0940001 4281946676
-0.19963749 0.25754184 1.0940001 4281684793
-0.19755718 0.25754184 1.0940001 4281422137
-0.19547687 0.25754184 1.0940001 4281158449
-0.1932198 0.25730643 1.0930001 4281355315
-0.19131626 0.25754184 1.0940001 4281552180
-0.18940894 0.25777724 1.095 4281090605
-0.18749781 0.25801265 1.0960001 4280892457
-0.18609039 0.25895432 1.1 4280957736
-0.18483503 0.26013139 1.105 4280299031
-0.1838914 0.26177928 1.1120001 4279640839
-0.18177687 0.26177928 1.1120001 4279969286
-0.18014704 0.2624855 1.115 4280495628
-0.17850578 0.26319176 1.118 4280495117
-0.17669538 0.26366258 1.12 4280889879
-0.17456563 0.26366258 1.12 4281349925
-0.17289776 0.26436883 1.123 4281086500
-0.17121848 0.26507506 1.126 4280954146
-0.16937764 0.26554587 1.128 4283651661
-0.1675292 0.26601669 1.13 4285625453
-0.16538043 0.26601669 1.13 4286677888
-0.16308723 0.26578128 1.1290001 4287006344
-0.1607978 0.26554587 1.128 4287071884
-0.15865286 0.26554587 1.128 4287466390
-0.15636915 0.26531047 1.1270001 4287795357
-0.15422609 0.26531047 1.1270001 4287861150
-0.15194809 0.26507506 1.126 4288387494
-0.14967388 0.26483965 1.125 4288848045
-0.14766577 0.26507506 1.126 4288979629
-0.14539537 0.26483965 1.125 4288783015
-0.14325611 0.26483965 1.125 4288651428
-0.14136775 0.26531047 1.1270001 4288454047
-0.13922469 0.26531047 1.1270001 4288387993
-0.13708164 0.26531047 1.1270001 4288321426
-0.1350583 0.26554587 1.128 4287991946
-0.13291335 0.26554587 1.128 4287399293
-0.13076839 0.26554587 1.128 4286610544
-0.12873746 0.26578128 1.1290001 4286282344
-0.12647846 0.26554587 1.128 4285953628
-0.12433351 0.26554587 1.128 4284770375
-0.12229688 0.26578128 1.1290001 4283586864
-0.12004359 0.26554587 1.128 4280956424
-0.11779412 0.26531047 1.1270001 4281154828
-0.11544582 0.26483965 1.125 4281681685
-0.1129037 0.26389799 1.1210001 4282011933
-0.11047561 0.26319176 1.118 4282209569
-0.10805892 0.2624855 1.115 4282144544
-0.10555863 0.26154387 1.1110001 4282013469
-0.10325978 0.26107302 1.1090001 4281882395
-0.10096853 0.26060221 1.107 4281816092
-0.098952815 0.26083761 1.108 4281618200
-0.097020693 0.26130846 1.11 4281221645
-0.095166482 0.26201469 1.113 4280760322
-0.093300849 0.26272094 1.1160001 4280363520
-0.091260418 0.26295635 1.1170001 4281084928
-0.089216173 0.26319176 1.118 4283386133
-0.087168127 0.26342717 1.1190001 4285095464
-0.085116282 0.26366258 1.12 4286278709
-0.08306063 0.26389799 1.1210001 4286476088
-0.080928981 0.26389799 1.1210001 4286213432
-0.078867622 0.26413342 1.1220001 4286214973
-0.076734073 0.26413342 1.1220001 4283979299
-0.074600525 0.26413342 1.1220001 4280822784
-0.072466977 0.26413342 1.1220001 4280363776
-0.070208058 0.26366258 1.12 4280562691
-0.067895964 0.26295635 1.1170001 4281025295
-0.065536387 0.26201469 1.113 4281487386
-0.063248999 0.26130846 1.11 4282342697
-0.061138276 0.26130846 1.11 4282803250
-0.058921188 0.26083761 1.108 4282934581
-0.056762986 0.26060221 1.107 4282868788
-0.054608583 0.2603668 1.1060001 4282474285
-0.052457985 0.26013139 1.105 4282079014
-0.050402336 0.2603668 1.1060001 4282473770
-0.048299212 0.2603668 1.1060001 4281618204
-0.04627962 0.26083761 1.108 4281354262
-0.044292293 0.26154387 1.1110001 4280695819
-0.04229356 0.2622501 1.1140001 4280497673
-0.040283415 0.26295635 1.1170001 4280431626
-0.038330186 0.26413342 1.1220001 4281089045
-0.0363902 0.26554587 1.128 4282272557
-0.034275603 0.26578128 1.1290001 4285428323
-0.032157198 0.26601669 1.13 4285888112
-0.029955324 0.26554587 1.128 4286545793
-0.027785709 0.26531047 1.1270001 4286940811
-0.025619902 0.26507506 1.126 4287269524
-0.023478745 0.26507506 1.126 4287532696
-0.021337589 0.26507506 1.126 4287664280
-0.019196434 0.26507506 1.126 4287796120
-0.017070424 0.26531047 1.1270001 4287861400
-0.014927368 0.26531047 1.1270001 4287927195
-0.01278431 0.26531047 1.1270001 4288058527
-0.010631811 0.26507506 1.126 4288321699
-0.0084906556 0.26507506 1.126 4288584612
-0.006355138 0.26531047 1.1270001 4288519070
-0.004212081 0.26531047 1.1270001 4288913308
-0.002074531 0.26601669 1.13 4289506214
7.4427982e-05 0.26672295 1.133 4281018918
0.0022288945 0.26672295 1.133 4279966483
0.013230729 0.27143121 1.153 4282861121
0.015423227 0.27143121 1.153 4289966516
0.017325439 0.26695836 1.1340001 4289439153
0.019378729 0.26554587 1.128 4288913325
0.021504607 0.26531047 1.1270001 4288321440
0.023605699 0.26483965 1.125 4287795349
0.02572207 0.26460424 1.1240001 4287729552
0.027834633 0.26436883 1.123 4287532427
0.029970085 0.26436883 1.123 4286545278
0.032019768 0.26366258 1.12 4285493364
0.033966571 0.2622501 1.1140001 4284968050
0.035987731 0.26154387 1.1110001 4284310634
0.037928894 0.2603668 1.1060001 4284573032
0.039887242 0.25942513 1.102 4284769639
0.041906562 0.25895432 1.1 4285229929
0.043678291 0.25707102 1.092 4285427051
0.045587193 0.25612935 1.0880001 4285295465
0.047612287 0.25589395 1.087 4284835171
0.049587879 0.2554231 1.085 4284704866
0.051651068 0.2554231 1.085 4284508253
0.05371426 0.2554231 1.085 4283916882
0.055726044 0.25518769 1.0840001 4284048203
0.057787333 0.25518769 1.0840001 4284047941
0.059793416 0.25495228 1.0830001 4284836681
0.061795693 0.25471687 1.082 4285230922
0.063794166 0.25448146 1.0810001 4283783738
0.065788835 0.25424606 1.08 4282666815
0.067842513 0.25424606 1.08 4282798922
0.069831483 0.25401062 1.079 4282798411
0.071949884 0.25424606 1.08 4283126867
0.074072093 0.25448146 1.0810001 4283717723
0.076550215 0.25589395 1.087 4284309091
0.07912349 0.25754184 1.0940001 4284834159
0.081203796 0.25754184 1.0940001 4281675326
0.083512485 0.25824806 1.097 4281740867
0.086066671 0.25966054 1.103 4282135627
0.088563748 0.26083761 1.108 4282990937
0.090916172 0.26154387 1.1110001 4284701554
0.093112536 0.26177928 1.1120001 4286741905
0.095312707 0.26201469 1.113 4287136915
0.097429141 0.26201469 1.113 4287466390
0.09963502 0.2622501 1.1140001 4287466644
0.10166202 0.26201469 1.113 4287664282
0.10377845 0.26201469 1.113 4287927454
0.10599003 0.2622501 1.1140001 4288124833
0.10801132 0.26201469 1.113 4288256419
0.11012775 0.26201469 1.113 4288453796
0.11234504 0.2622501 1.1140001 4288651175
0.11446338 0.2622501 1.1140001 4288848808
0.11668637 0.2624855 1.115 4288914601
0.11891316 0.26272094 1.1160001 4289046187
0.1210353 0.26272094 1.1160001 4289111980
0.12315744 0.26272094 1.1160001 4289177519
0.12527958 0.26272094 1.1160001 4289177519
0.12740172 0.26272094 1.1160001 4289177521
0.12963991 0.26295635 1.1170001 4289177521
0.13176395 0.26295635 1.1170001 4289243314
0.13400787 0.26319176 1.118 4289243314
0.13601205 0.26295635 1.1170001 4289374898
0.13813609 0.26295635 1.1170001 4289374898
0.14026013 0.26295635 1.1170001 4289374898
0.14225671 0.26272094 1.1160001 4289440691
0.14437884 0.26272094 1.1160001 4289440691
0.14663225 0.26295635 1.1170001 4289440691
0.14888947 0.26319176 1.118 4289309875
0.15128556 0.26366258 1.12 4289309875
0.15341531 0.26366258 1.12 4289375668
0.15540618 0.26342717 1.1190001 4289375668
0.15739325 0.26319176 1.118 4289375668
0.1595192 0.26319176 1.118 4289441461
0.16178972 0.26342717 1.1190001 4289441461
0.16391756 0.26342717 1.1190001 4289441461
0.1660454 0.26342717 1.1190001 4289376181
0.16802296 0.26319176 1.118 4289376181
0.17014891 0.26319176 1.118 4289310388
0.17212075 0.26295635 1.1170001 4289376181
0.17408881 0.26272094 1.1160001 4289507767
0.17605305 0.2624855 1.115 4289507767
0.17833309 0.26272094 1.1160001 4289441974
0.18045522 0.26272094 1.1160001 4289441974
0.18257736 0.26272094 1.1160001 4289507765
0.18469951 0.26272094 1.1160001 4289639351
0.18665424 0.2624855 1.115 4289639350
0.18877447 0.2624855 1.115 4289376432
0.19106592 0.26272094 1.1160001 4288784295
0.19457293 0.26460424 1.1240001 4288192156
0.19671027 0.26460424 1.1240001 4287863189
-0.36081746 0.26650429 1.123 4285955461
-0.35868201 0.26650429 1.123 4288257963
-0.3543241 0.26484308 1.1160001 4290231755
-0.35220197 0.26484308 1.1160001 4285889165
-0.35007983 0.26484308 1.1160001 4285429127
-0.34795767 0.26484308 1.1160001 4285494920
-0.34583554 0.26484308 1.1160001 4286284436
-0.3434054 0.26460573 1.115 4285692812
-0.34097907 0.26436844 1.1140001 4285166466
-0.33916494 0.26460573 1.115 4285100160
-0.33704469 0.26460573 1.115 4285034621
-0.33612597 0.26555502 1.1190001 4287008151
-0.335789 0.26697889 1.125 4290429385
-0.33424288 0.26745355 1.1270001 4290232004
-0.33799335 0.27219984 1.1470001 4290232257
-0.33581227 0.27219984 1.1470001 4290758085
-0.32266641 0.26674157 1.1240001 4288126111
-0.32052904 0.26674157 1.1240001 4289311156
-0.31867498 0.26697889 1.125 4286613391
-0.31569162 0.26626697 1.1220001 4285034106
-0.31244022 0.26531771 1.118 4285428868
-0.31003669 0.26508039 1.1170001 4285428615
-0.30736136 0.26460573 1.115 4285165956
-0.30524111 0.26460573 1.115 4285099903
-0.30312088 0.26460573 1.115 4285099903
-0.30100062 0.26460573 1.115 4284507764
-0.2988804 0.26460573 1.115 4286415245
-0.29676017 0.26460573 1.115 4290493897
-0.29490417 0.26484308 1.1160001 4290230979
-0.29278204 0.26484308 1.1160001 4289835449
-0.29092032 0.26508039 1.1170001 4290296254
-0.28905484 0.26531771 1.118 4290427327
-0.28667223 0.26508039 1.1170001 4290361533
-0.28454819 0.26508039 1.1170001 4290295741
-0.28267699 0.26531771 1.118 4290229948
-0.28055105 0.26531771 1.118 4290164155
-0.27892321 0.26579231 1.12 4290033082
-0.27679345 0.26579231 1.12 4290032571
-0.27441847 0.26555502 1.1190001 4289901242
-0.27229062 0.26555502 1.1190001 4290033082
-0.26992133 0.26531771 1.118 4290164668
-0.26779541 0.26531771 1.118 4290164414
-0.26566947 0.26531771 1.118 4290098623
-0.26330778 0.26508039 1.1170001 4289967807
-0.26094994 0.26484308 1.1160001 4290033346
-0.25882781 0.26484308 1.1160001 4289967807
-0.25670564 0.26484308 1.1160001 4289902014
-0.25481161 0.26508039 1.1170001 4289704633
-0.2529138 0.26531771 1.118 4289836219
-0.25056353 0.26508039 1.1170001 4289902012
-0.24799468 0.26460573 1.115 4289770426
-0.24565391 0.26436844 1.1140001 4289441974
-0.24353558 0.26436844 1.1140001 4289178548
-0.24141724 0.26436844 1.1140001 4288849585
-0.2392989 0.26436844 1.1140001 4288389549
-0.23718056 0.26436844 1.1140001 4287468962
-0.23506223 0.26436844 1.1140001 4287798186
-0.23294389 0.26436844 1.1140001 4284442743
-0.22999674 0.26341918 1.11 4282535516
-0.22706479 0.26246992 1.1060001 4282536280
-0.22374126 0.26104605 1.1 4281024318
-0.22104505 0.26033407 1.097 4280762931
-0.21816064 0.25938484 1.0930001 4280829486
-0.21548915 0.25867289 1.09 4280830252
-0.21322067 0.25843558 1.0890001 4280962349
-0.21134375 0.25867289 1.09 4280830252
-0.20946305 0.25891021 1.0910001 4280697896
-0.20757852 0.25914752 1.092 4280236320
-0.20569022 0.25938484 1.0930001 4280104221
-0.20398439 0.25985947 1.095 4280761890
-0.20190218 0.25985947 1.095 4281354540
-0.19981998 0.25985947 1.095 4281026604
-0.19737661 0.25938484 1.0930001 4281618741
-0.19511952 0.25914752 1.092 4281025575
-0.19304301 0.25914752 1.092 4281090084
-0.1911414 0.25938484 1.0930001 4281286436
-0.18940894 0.25985947 1.095 4280956446
-0.18766887 0.26033407 1.097 4281021473
-0.18625957 0.26128334 1.1010001 4280757788
-0.18516958 0.26270723 1.107 4280296719
-0.18405676 0.26413113 1.113 4279507202
-0.18194033 0.26413113 1.113 4279968259
-0.17998546 0.26436844 1.1140001 4280757773
-0.17834613 0.26508039 1.1170001 4280691728
-0.17637984 0.26531771 1.118 4280823062
-0.17440976 0.26555502 1.1190001 4281085985
-0.17258984 0.26602963 1.1210001 4280690974
-0.17091437 0.26674157 1.1240001 4283322694
-0.16892716 0.26697889 1.125 4285691244
-0.16708444 0.26745355 1.1270001 4286546555
-0.16479503 0.26721621 1.126 4286809474
-0.16250941 0.26697889 1.125 4287072394
-0.16037016 0.26697889 1.125 4287467155
-0.1582309 0.26697889 1.125 4287992734
-0.1559529 0.26674157 1.1240001 4287927456
-0.15381555 0.26674157 1.1240001 4288321701
-0.15154324 0.26650429 1.123 4288519080
-0.1494078 0.26650429 1.123 4288519078
-0.14727235 0.26650429 1.123 4288585125
-0.14513689 0.26650429 1.123 4288914601
-0.14312878 0.26674157 1.1240001 4289046186
-0.14124231 0.26721621 1.126 4288783012
-0.13910115 0.26721621 1.126 4288585374
-0.13696 0.26721621 1.126 4288189587
-0.13493858 0.26745355 1.1270001 4288386453
-0.13279553 0.26745355 1.1270001 4288057488
-0.13065247 0.26745355 1.1270001 4287268483
-0.1285094 0.26745355 1.1270001 4286611576
-0.12625422 0.26721621 1.126 4286348655
-0.12422328 0.26745355 1.1270001 4285691232
-0.12208023 0.26745355 1.1270001 4284837457
-0.11993717 0.26745355 1.1270001 4282535980
-0.11768959 0.26721621 1.126 4282734124
-0.11534321 0.26674157 1.1240001 4282801198
-0.1129037 0.26602963 1.1210001 4282539306
-0.11057442 0.26555502 1.1190001 4282145059
-0.10805892 0.26460573 1.115 4281619740
-0.10565365 0.26389381 1.1120001 4281422615
-0.10335289 0.26341918 1.11 4281357335
-0.10105974 0.26294455 1.108 4281553949
-0.099042118 0.26318187 1.1090001 4281618974
-0.097020693 0.26341918 1.11 4281552668
-0.095251985 0.26436844 1.1140001 4281945886
-0.09338446 0.26508039 1.1170001 4281615381
-0.091342121 0.26531771 1.118 4281152774
-0.089295976 0.26555502 1.1190001 4281282048
-0.087246023 0.26579231 1.12 4280951552
-0.085268274 0.26626697 1.1220001 4282266373
-0.083134718 0.26626697 1.1220001 4283515927
-0.08100117 0.26626697 1.1220001 4282859281
-0.078867622 0.26626697 1.1220001 4282465552
-0.076734073 0.26626697 1.1220001 4281151491
-0.074667014 0.26650429 1.123 4280166912
-0.072466977 0.26626697 1.1220001 4281747226
-0.070270739 0.26602963 1.1210001 4282077987
-0.067895964 0.26508039 1.1170001 4282211881
-0.065536387 0.26413113 1.113 4282410287
-0.063248999 0.26341918 1.11 4282541875
-0.061083198 0.26318187 1.1090001 4282147375
-0.058921188 0.26294455 1.108 4281883946
-0.056711711 0.26246992 1.1060001 4282015532
-0.054559208 0.26223263 1.105 4282278704
-0.052457985 0.26223263 1.105 4282344497
-0.050356761 0.26223263 1.105 4282409519
-0.048255537 0.26223263 1.105 4281685796
-0.046237852 0.26270723 1.107 4282211113
-0.044252429 0.26341918 1.11 4281947686
-0.04229356 0.26436844 1.1140001 4281947177
-0.040247351 0.26484308 1.1160001 4281222943
-0.038330186 0.26626697 1.1220001 4281485346
-0.036357939 0.26745355 1.1270001 4282339122
-0.034245241 0.26769087 1.128 4285231459
-0.032100283 0.26769087 1.128 4285756784
-0.029902212 0.26721621 1.126 4286282878
-0.027736401 0.26697889 1.125 4286809225
-0.025574394 0.26674157 1.1240001 4287203729
-0.02343704 0.26674157 1.1240001 4287466901
-0.021299688 0.26674157 1.1240001 4287664280
-0.019179385 0.26697889 1.125 4287730327
-0.01704013 0.26697889 1.125 4287795607
-0.014900876 0.26697889 1.125 4287927193
-0.012761623 0.26697889 1.125 4288124320
-0.010612926 0.26674157 1.1240001 4288453539
-0.0084755737 0.26674157 1.1240001 4288650916
-0.0063438597 0.26697889 1.125 4288584863
-0.0042083431 0.26721621 1.126 4288782492
-0.0020726952 0.26792815 1.1290001 4289506214
7.4230913e-05 0.26816547 1.13 4280821538
0.0022229929 0.26816547 1.13 4279966481
0.017294882 0.2686401 1.1320001 4289110186
0.01936155 0.26745355 1.1270001 4288781223
0.021485524 0.26721621 1.126 4288649635
0.023584716 0.26674157 1.1240001 4288255130
0.025699183 0.26650429 1.123 4287597198
0.027809849 0.26626697 1.1220001 4286939522
0.029916709 0.26602963 1.1210001 4286215799
0.03199118 0.26555502 1.1190001 4285887350
0.03402755 0.26484308 1.1160001 4285165167
0.036084909 0.26436844 1.1140001 4284441446
0.038100366 0.2636565 1.1110001 4284374881
0.040068217 0.26270723 1.107 4284045659
0.042135142 0.26246992 1.1060001 4283782485
