# .PCD v0.7 - Point Cloud Data file format
VERSION 0.7
FIELDS x y z intensity
SIZE 4 4 4 4
TYPE F F F F
COUNT 1 1 1 1
WIDTH 1117
HEIGHT 1
VIEWPOINT 0 0 0 1 0 0 0
POINTS 1117
DATA ascii
-0.30346185 0.099954471 1.207 0.21319106
-0.29424199 0.098792337 1.1998335 0.21319106
-0.31097734 0.10515714 1.2207501 0.21319106
-0.30814135 0.10356367 1.2156668 0.21319106
-0.30212721 0.10604014 1.2131667 0.21319106
-0.2999391 0.10299383 1.2090001 0.21319106
-0.29337257 0.10348386 1.2079999 0.21319106
-0.30589601 0.10848175 1.2190001 0.21319106
-0.30051908 0.1116837 1.2160001 0.21319106
-0.34239259 0.16278638 1.2006667 0.2312713
-0.34182271 0.16935246 1.1986667 0.2312713
-0.33470204 0.16921003 1.1976666 0.2312713
-0.33203295 0.17475876 1.2045001 0.2312713
-0.34352747 0.17476048 1.1966667 0.2312713
-0.34161863 0.1780958 1.1916001 0.2312713
-0.33453801 0.17770486 1.191 0.2312713
-0.33158454 0.17734706 1.1987501 0.2312713
-0.33255681 0.18419529 1.1900001 0.2312713
-0.3313438 0.1823964 1.202 0.2312713
-0.34202534 0.18245421 1.1875 0.2312713
-0.34728146 0.18702018 1.1842501 0.2312713
-0.34194982 0.18631165 1.1833333 0.2312713
-0.33513609 0.18691885 1.184 0.2312713
-0.33122393 0.19242793 1.1933334 0.2312713
-0.34144449 0.19011603 1.179 0.2312713
-0.3339282 0.19298352 1.1828336 0.2312713
-0.27041396 0.080658555 1.1818181 0.20139505
-0.2624473 0.081391416 1.1814287 0.20139505
-0.25394958 0.077886343 1.177 0.20139505
-0.25395638 0.081608087 1.1822501 0.20139505
-0.27855089 0.084936202 1.1816667 0.20139505
-0.27939764 0.087448545 1.18525 0.20139505
-0.27280727 0.085247681 1.1860001 0.20139505
-0.26982772 0.089112297 1.1889232 0.20139505
-0.26216009 0.085085958 1.18375 0.20139505
-0.2534765 0.085193768 1.18525 0.20139505
-0.28601652 0.088531561 1.1846666 0.20139505
-0.27739462 0.090533093 1.1895556 0.20139505
-0.26138833 0.090199381 1.189091 0.20139505
-0.25394064 0.089882508 1.1906002 0.20139505
-0.28617162 0.09232378 1.1900001 0.20139505
-0.28827021 0.094904587 1.194 0.20139505
-0.28656799 0.097564727 1.19875 0.20139505
-0.27842912 0.096177764 1.1977142 0.20139505
-0.27101138 0.097828485 1.1980001 0.20139505
-0.26852077 0.094745614 1.192 0.20139505
-0.26314747 0.094851591 1.1933334 0.20139505
-0.26154822 0.097013421 1.199 0.20139505
-0.2541635 0.096454546 1.1991251 0.20139505
-0.28472415 0.10019512 1.2030001 0.20139505
-0.27908188 0.10022288 1.2033334 0.20139505
-0.26882231 0.10023676 1.2035 0.20139505
-0.26217538 0.10032004 1.2045001 0.20139505
-0.25398257 0.10025064 1.2036667 0.20139505
-0.29430935 0.17069721 1.2001112 0.20129913
-0.28668147 0.17109534 1.1997001 0.20129913
-0.27816749 0.1713417 1.2006251 0.20129913
-0.27374572 0.17296541 1.2 0.20129913
-0.26976365 0.17639622 1.1985334 0.20129913
-0.26169914 0.17592753 1.1986922 0.20129913
-0.29443872 0.17466311 1.1960001 0.20129913
-0.28693366 0.17557207 1.1960001 0.20129913
-0.27781424 0.17654558 1.1967778 0.20129913
-0.29389754 0.17848589 1.1925454 0.20129913
-0.2857427 0.17942294 1.19175 0.20129913
-0.28071442 0.17879865 1.1932501 0.20129913
-0.27779335 0.18450211 1.1917692 0.20129913
-0.27487746 0.1813342 1.1950001 0.20129913
-0.27033272 0.1813342 1.1950001 0.20129913
-0.26187155 0.18438317 1.1926875 0.20129913
-0.2940504 0.18501449 1.1880002 0.20129913
-0.2853688 0.1840706 1.1882223 0.20129913
-0.27026516 0.18574631 1.1927001 0.20129913
-0.28625795 0.1878088 1.1856667 0.20129913
-0.29423213 0.18898953 1.1860001 0.20129913
-0.28182825 0.18898953 1.1860001 0.20129913
-0.27723968 0.19014736 1.1876001 0.20129913
-0.27020571 0.19095594 1.188889 0.20129913
-0.26219252 0.1905971 1.1890001 0.20129913
-0.29392654 0.1934884 1.1825 0.20129913
-0.28628737 0.19420399 1.1820668 0.20129913
-0.27859053 0.1937371 1.1847 0.20129913
-0.26949641 0.1944076 1.1846668 0.20129913
-0.3346214 0.2760399 1.1050001 0.20120715
-0.33379558 0.2793369 1.1051251 0.20120715
-0.33432725 0.283344 1.1095001 0.20120715
-0.34019506 0.2840139 1.108 0.20120715
-0.33415863 0.28813431 1.1171668 0.20120715
-0.32647273 0.28807718 1.1115 0.20120715
-0.34182492 0.2870259 1.101375 0.20120715
-0.33974218 0.28673646 1.1076666 0.20120715
-0.33492923 0.28852999 1.1091667 0.20120715
-0.29954326 0.28353855 1.098 0.20120715
-0.30427325 0.2861467 1.1000001 0.20120715
-0.30164188 0.28940961 1.0937145 0.20120715
-0.34235898 0.28952605 1.0943334 0.20120715
-0.33370793 0.28889191 1.1005 0.20120715
-0.31079969 0.28948152 1.1027501 0.20120715
-0.33356166 0.29060325 1.0931668 0.20120715
-0.32585153 0.29092401 1.1022501 0.20120715
-0.31768808 0.29112196 1.1030002 0.20120715
-0.30993065 0.29086185 1.0941428 0.20120715
-0.3259418 0.29226556 1.0955 0.20120715
-0.31782725 0.29190668 1.0947143 0.20120715
-0.34192383 0.2918362 1.09 0.20120715
-0.33777842 0.2918362 1.09 0.20120715
-0.3075836 0.29170233 1.0895001 0.20120715
-0.30433577 0.29156846 1.0890001 0.20120715
-0.34174898 0.2966392 1.0856315 0.20120715
-0.33398297 0.29654974 1.0871766 0.20120715
-0.32675311 0.29424596 1.0912501 0.20120715
-0.31783193 0.29583892 1.0883076 0.20120715
-0.30974701 0.29595435 1.0880001 0.20120715
-0.30236661 0.29734597 1.0866318 0.20120715
-0.30074549 0.29417855 1.0910001 0.20120715
-0.32580522 0.29753038 1.0880834 0.20120715
-0.31763193 0.30067775 1.092 0.20120715
-0.31319311 0.30040237 1.0910001 0.20120715
-0.34558678 0.29998177 1.082 0.20120715
-0.34254363 0.30447021 1.0860001 0.20120715
-0.33450669 0.30269536 1.0888001 0.20120715
-0.32615471 0.30199182 1.0892501 0.20120715
-0.32090214 0.3019225 1.0890001 0.20120715
-0.31763193 0.30275425 1.092 0.20120715
-0.31111851 0.30524313 1.0910001 0.20120715
-0.30951276 0.30468547 1.0890001 0.20120715
-0.33311126 0.30633801 1.0931429 0.20120715
-0.34099182 0.3080672 1.0936667 0.20120715
-0.34087732 0.31124738 1.1 0.20120715
-0.29505923 0.27615663 1.1046667 0.20121813
-0.28884557 0.27694124 1.105 0.20121813
-0.28357953 0.27849501 1.107 0.20121813
-0.27795735 0.27760956 1.1076667 0.20121813
-0.27060705 0.27763045 1.1077501 0.20121813
-0.26422781 0.2775678 1.1075001 0.20121813
-0.26168647 0.28102434 1.1027224 0.20121813
-0.25416735 0.28095424 1.1028237 0.20121813
-0.25042537 0.27744249 1.107 0.20121813
-0.2461497 0.28132537 1.1028237 0.20121813
-0.29419139 0.28022918 1.1014167 0.20121813
-0.28627133 0.28172803 1.1031876 0.20121813
-0.27773631 0.28174856 1.1048461 0.20121813
-0.2700178 0.28150788 1.1035 0.20121813
-0.29321203 0.283474 1.0977501 0.20121813
-0.27834401 0.28684014 1.1017778 0.20121813
-0.29420736 0.28849527 1.0938947 0.20121813
-0.28650808 0.28983551 1.0953531 0.20121813
-0.28481743 0.28656504 1.1000001 0.20121813
-0.27025127 0.28722939 1.0995715 0.20121813
-0.2621994 0.28588659 1.0990001 0.20121813
-0.2615979 0.28943887 1.095706 0.20121813
-0.25389716 0.28595161 1.0992501 0.20121813
-0.24564914 0.28608167 1.09975 0.20121813
-0.25376055 0.28981423 1.0962307 0.20121813
-0.24615966 0.29026905 1.0947144 0.20121813
-0.27802837 0.29122293 1.0955001 0.20121813
-0.2697998 0.291334 1.0959166 0.20121813
-0.29425174 0.2918362 1.09 0.20121813
-0.25482735 0.29488695 1.0927777 0.20121813
-0.29407489 0.29734677 1.0870501 0.20121813
-0.29037249 0.29417855 1.0910001 0.20121813
-0.28538275 0.29438078 1.09175 0.20121813
-0.27713996 0.2944482 1.092 0.20121813
-0.26958469 0.29662189 1.0923637 0.20121813
-0.26272285 0.29736367 1.0921538 0.20121813
-0.28603539 0.2985062 1.0871333 0.20121813
-0.2778751 0.29819447 1.08675 0.20121813
-0.25323027 0.29843968 1.088889 0.20121813
-0.27161604 0.29902297 1.0890001 0.20121813
-0.25993338 0.29998934 1.0895001 0.20121813
-0.30869231 0.23343539 1.1516001 0.2011708
-0.30218604 0.23132168 1.1488181 0.2011708
-0.31536612 0.23696607 1.156 0.2011708
-0.30186987 0.23558439 1.1447144 0.2011708
-0.32333928 0.24046934 1.1570001 0.2011708
-0.31969586 0.24007542 1.1577501 0.2011708
-0.3118203 0.23730229 1.1470001 0.2011708
-0.30787665 0.23678505 1.1445 0.2011708
-0.33365583 0.23986688 1.1426001 0.2011708
-0.32590491 0.2413047 1.1505001 0.2011708
-0.31773522 0.24083678 1.15 0.2011708
-0.30999991 0.24171473 1.1409231 0.2011708
-0.30276269 0.2413338 1.1406922 0.2011708
-0.33427992 0.24206623 1.1366001 0.2011708
-0.32661137 0.24131329 1.1453333 0.2011708
-0.31765974 0.24280855 1.1410002 0.2011708
-0.32585919 0.24342889 1.1358182 0.2011708
-0.29855371 0.24301422 1.138 0.2011708
-0.34152329 0.24678199 1.1337779 0.2011708
-0.3348448 0.24683642 1.1321429 0.2011708
-0.32281038 0.24854815 1.132 0.2011708
-0.31779483 0.24847576 1.1333127 0.2011708
-0.30982637 0.248317 1.1340001 0.2011708
-0.30224195 0.24877653 1.1332858 0.2011708
-0.33330655 0.25020188 1.1286668 0.2011708
-0.32573122 0.24832523 1.1287 0.2011708
-0.34228459 0.25068331 1.1278182 0.2011708
-0.33370015 0.25384036 1.13 0.2011708
-0.32716274 0.25468603 1.1321666 0.2011708
-0.32392254 0.25711584 1.142 0.2011708
-0.31995082 0.2577616 1.141 0.2011708
-0.31547466 0.25653619 1.1339999 0.2011708
-0.3117719 0.25442344 1.131 0.2011708
-0.30894685 0.25641024 1.1276668 0.2011708
-0.30232307 0.25565663 1.1266155 0.2011708
-0.34166947 0.25735092 1.1250001 0.2011708
-0.33539289 0.25699231 1.1338 0.2011708
-0.33366463 0.25962377 1.1396668 0.2011708
-0.32328847 0.26284242 1.149 0.2011708
-0.33907226 0.26094866 1.136 0.2011708
-0.32054466 0.26347545 1.1470001 0.2011708
-0.31392255 0.26195076 1.131 0.2011708
-0.33908391 0.26783764 1.1470001 0.2011708
-0.34206629 0.19365618 1.1760001 0.19933102
-0.31095618 0.19155951 1.181 0.19933102
-0.30202353 0.19311573 1.1815386 0.19933102
-0.33724979 0.19478759 1.1767501 0.19933102
-0.315824 0.19493003 1.1810001 0.19933102
-0.30931169 0.19454201 1.1773 0.19933102
-0.33264813 0.20057622 1.1830001 0.19933102
-0.30331832 0.19659142 1.1775 0.19933102
-0.29860604 0.19717577 1.1810001 0.19933102
-0.33474565 0.20108485 1.1738571 0.19933102
-0.31719717 0.20127784 1.1750001 0.19933102
-0.31043822 0.20053943 1.1730999 0.19933102
-0.30244225 0.20077351 1.1737692 0.19933102
-0.32133532 0.20183805 1.182 0.19933102
-0.33536828 0.20337689 1.1682501 0.19933102
-0.32592565 0.20414324 1.1823334 0.19933102
-0.33097169 0.20636569 1.1736667 0.19933102
-0.3303259 0.20633334 1.182 0.19933102
-0.32759249 0.20714931 1.1802499 0.19933102
-0.32451528 0.20805883 1.174 0.19933102
-0.31557822 0.20406401 1.169 0.19933102
-0.31008556 0.20410766 1.16925 0.19933102
-0.301016 0.20423859 1.1700001 0.19933102
-0.33396465 0.20694755 1.1655715 0.19933102
-0.32000574 0.20699281 1.1730001 0.19933102
-0.31806183 0.20964999 1.1667 0.19933102
-0.30936363 0.20846462 1.1668463 0.19933102
-0.30211532 0.20982857 1.1670834 0.19933102
-0.3027578 0.20663989 1.171 0.19933102
-0.32671991 0.21076721 1.1661251 0.19933102
-0.33357584 0.21096823 1.1594443 0.19933102
-0.32915583 0.21168056 1.1620001 0.19933102
-0.31589815 0.21168056 1.1620001 0.19933102
-0.31147894 0.21168058 1.1620001 0.19933102
-0.33334422 0.21597369 1.1566 0.19933102
-0.3265126 0.21691611 1.1587858 0.19933102
-0.32391033 0.21407425 1.1630001 0.19933102
-0.31836608 0.21726476 1.160643 0.19933102
-0.30977303 0.21678248 1.1597501 0.19933102
-0.30307457 0.21419697 1.1636667 0.19933102
-0.30209109 0.21791154 1.159889 0.19933102
-0.32753548 0.22267222 1.1594001 0.19933102
-0.32629901 0.22615907 1.1660001 0.19933102
-0.31971407 0.22629099 1.1651667 0.19933102
-0.31645346 0.22333741 1.1613334 0.19933102
-0.3100906 0.22433454 1.1568183 0.19933102
-0.30175734 0.22332263 1.1565 0.19933102
-0.32558018 0.22706765 1.1730001 0.19933102
-0.33000562 0.22773434 1.1650001 0.19933102
-0.32558018 0.22929819 1.1730001 0.19933102
-0.30687398 0.22648388 1.1530001 0.19933102
-0.30216661 0.2265168 1.1531667 0.19933102
-0.32641402 0.23054181 1.1680001 0.19933102
-0.31825209 0.23294751 1.1652223 0.19933102
-0.32583061 0.23555282 1.182 0.19933102
-0.31205964 0.23242199 1.158 0.19933102
-0.33963558 0.26508653 1.1408 0.20134525
-0.3349025 0.26328933 1.1424 0.20134525
-0.30230412 0.25936291 1.1198334 0.20134525
-0.33944175 0.26260683 1.1276668 0.20134525
-0.31607324 0.26195076 1.131 0.20134525
-0.3066099 0.25940305 1.12 0.20134525
-0.34226662 0.26356596 1.1196001 0.20134525
-0.31666833 0.26573753 1.1270001 0.20134525
-0.31163791 0.26349196 1.1253333 0.20134525
-0.30926189 0.26423123 1.1188 0.20134525
-0.30172721 0.26255065 1.1165715 0.20134525
-0.33486667 0.26656276 1.1255001 0.20134525
-0.33542919 0.2662521 1.131 0.20134525
-0.33565912 0.27003762 1.1440001 0.20134525
-0.33465099 0.26686987 1.1181428 0.20134525
-0.30168965 0.26650485 1.1132728 0.20134525
-0.3255825 0.26863974 1.123 0.20134525
-0.32616237 0.26911816 1.125 0.20134525
-0.31678906 0.26752341 1.1183333 0.20134525
-0.30945212 0.26738858 1.1127143 0.20134525
-0.3367424 0.26860511 1.1140001 0.20134525
-0.3331027 0.26908737 1.1160001 0.20134525
-0.32647604 0.26975045 1.11875 0.20134525
-0.31862983 0.26940885 1.1173334 0.20134525
-0.33398017 0.27209768 1.110357 0.20134525
-0.3259128 0.27228478 1.1095833 0.20134525
-0.31808174 0.27152634 1.1094999 0.20134525
-0.3100512 0.27281547 1.1103529 0.20134525
-0.30244896 0.2730588 1.1105834 0.20134525
-0.32525569 0.27615052 1.1052001 0.20134525
-0.31837037 0.27598393 1.1053751 0.20134525
-0.31150454 0.27647811 1.10525 0.20134525
-0.30040166 0.2762402 1.105 0.20134525
-0.30858019 0.27986079 1.105125 0.20134525
-0.30238202 0.28072524 1.102 0.20134525
-0.32581344 0.27921081 1.1056666 0.20134525
-0.31960228 0.279295 1.1060001 0.20134525
-0.31741443 0.28288355 1.1118335 0.20134525
-0.32669419 0.28298828 1.11225 0.20134525
-0.31114396 0.28339767 1.1083333 0.20134525
-0.32915306 0.28632089 1.1170001 0.20134525
-0.3197957 0.28555188 1.1140001 0.20134525
-0.33286566 0.29105586 1.1238 0.20134525
-0.31105122 0.28749758 1.1092501 0.20134525
-0.26090688 0.20843902 1.1514 0.20356226
-0.26105773 0.21680643 1.154 0.20356226
-0.25751743 0.21349619 1.148 0.20356226
-0.24819389 0.21110968 1.1102002 0.20356226
-0.24399117 0.20609762 1.097 0.20356226
-0.24278723 0.20998955 1.1010001 0.20356226
-0.26202735 0.22552212 1.1518334 0.20356226
-0.25168511 0.21826191 1.1220001 0.20356226
-0.24449842 0.21371073 1.1040001 0.20356226
-0.25890863 0.22699007 1.1445 0.20356226
-0.25168511 0.22146225 1.1220001 0.20356226
-0.25426477 0.2269648 1.1335001 0.20356226
-0.25029293 0.22640125 1.1253333 0.20356226
-0.2457854 0.22525494 1.1170001 0.20356226
-0.26161724 0.23380983 1.14325 0.20356226
-0.24353558 0.2241199 1.1140001 0.20356226
-0.25766441 0.23348127 1.1390001 0.20356226
-0.25404048 0.23322561 1.1325001 0.20356226
-0.25073782 0.23323409 1.1273334 0.20356226
-0.24495728 0.23288625 1.1205001 0.20356226
-0.25542605 0.24141444 1.1333334 0.20356226
-0.24763854 0.23554012 1.123 0.20356226
-0.2509973 0.2409865 1.1285001 0.20356226
-0.23824099 0.23681854 1.1240001 0.20356226
-0.24661762 0.24198572 1.1248333 0.20356226
-0.2437899 0.23917103 1.1216668 0.20356226
-0.23836343 0.24121916 1.1245834 0.20356226
-0.2331048 0.24237834 1.125 0.20356226
-0.23289759 0.24536799 1.1240001 0.20356226
-0.26239634 0.19404054 1.1838001 0.20127103
-0.2595464 0.19538793 1.177 0.20127103
-0.25730824 0.19538793 1.177 0.20127103
-0.29303646 0.19919513 1.1796666 0.20127103
-0.27722397 0.19983348 1.1808001 0.20127103
-0.27085677 0.19938168 1.1807779 0.20127103
-0.26390922 0.19725925 1.1815001 0.20127103
-0.29442155 0.20165463 1.1754999 0.20127103
-0.2891326 0.20020479 1.179 0.20127103
-0.28546995 0.20218521 1.1760001 0.20127103
-0.2804879 0.2022554 1.1766001 0.20127103
-0.26290089 0.19997668 1.1748571 0.20127103
-0.26967597 0.20214601 1.17725 0.20127103
-0.26322645 0.20286527 1.1685001 0.20127103
-0.29557192 0.20406401 1.169 0.20127103
-0.27743155 0.20832048 1.1742144 0.20127103
-0.27135551 0.20782907 1.1741428 0.20127103
-0.26351792 0.20359586 1.1600001 0.20127103
-0.25886333 0.20144558 1.154 0.20127103
-0.29406101 0.20939684 1.1665336 0.20127103
-0.29162416 0.20663989 1.171 0.20127103
-0.28630161 0.20681635 1.1720001 0.20127103
-0.26911432 0.21061264 1.1683334 0.20127103
-0.28536409 0.21058118 1.1681668 0.20127103
-0.27834427 0.21239954 1.1690001 0.20127103
-0.26530522 0.21186273 1.1630001 0.20127103
-0.29412848 0.21663031 1.1589377 0.20127103
-0.28542629 0.21595497 1.1648 0.20127103
-0.27819479 0.21763574 1.1656922 0.20127103
-0.27027023 0.21671759 1.1653333 0.20127103
-0.26530522 0.21407425 1.1630001 0.20127103
-0.28692442 0.21906771 1.1610001 0.20127103
-0.26401472 0.21788576 1.15975 0.20127103
-0.27612516 0.22051904 1.1620001 0.20127103
-0.27036825 0.22032927 1.161 0.20127103
-0.29354337 0.22325706 1.1571112 0.20127103
-0.28548321 0.22470227 1.1583573 0.20127103
-0.27968004 0.22292033 1.1630001 0.20127103
-0.27792332 0.22644635 1.1594547 0.20127103
-0.27028388 0.22503957 1.1592858 0.20127103
-0.2641646 0.22416145 1.1580001 0.20127103
-0.29477212 0.22681673 1.1528333 0.20127103
-0.28739053 0.22777848 1.154 0.20127103
-0.26764092 0.22777846 1.154 0.20127103
-0.2755599 0.23127031 1.1550001 0.20127103
-0.26970908 0.2329233 1.1507857 0.20127103
-0.26460311 0.23142834 1.1503334 0.20127103
-0.29342517 0.23174071 1.1487857 0.20027971
-0.28561795 0.23246074 1.1503999 0.20027971
-0.27872804 0.23318915 1.1511818 0.20027971
-0.2945604 0.23585208 1.1435001 0.20027971
-0.28598782 0.23668161 1.1440001 0.20027971
-0.27728343 0.23668161 1.1440001 0.20027971
-0.2784369 0.24070103 1.1417143 0.20027971
-0.27099681 0.2368885 1.1450001 0.20027971
-0.26996118 0.24020931 1.1416923 0.20027971
-0.29385218 0.23926184 1.1407501 0.20027971
-0.2857013 0.24117137 1.1409999 0.20027971
-0.26389718 0.24009164 1.1416 0.20027971
-0.26047891 0.2415957 1.1364286 0.20027971
-0.29413927 0.24294271 1.1376667 0.20027971
-0.28989783 0.24301422 1.138 0.20027971
-0.27571127 0.24398896 1.1375 0.20027971
-0.26934007 0.2440962 1.138 0.20027971
-0.29416108 0.24745792 1.1335833 0.20027971
-0.28575408 0.24854651 1.1347693 0.20027971
-0.28365493 0.24647658 1.1390001 0.20027971
-0.27940494 0.24654871 1.1393334 0.20027971
-0.27771276 0.24947613 1.1356364 0.20027971
-0.27002355 0.2487575 1.1342309 0.20027971
-0.26284045 0.24739531 1.1333002 0.20027971
-0.2616443 0.25148132 1.128143 0.20027971
-0.29346898 0.25170425 1.1291429 0.20027971
-0.28760418 0.25182572 1.1289999 0.20027971
-0.27037084 0.25230691 1.1287501 0.20027971
-0.29833943 0.25290009 1.1290001 0.20027971
-0.28537685 0.25635999 1.1260769 0.20027971
-0.28381327 0.25334808 1.131 0.20027971
-0.27864224 0.25425166 1.1318334 0.20027971
-0.29445922 0.25559336 1.1251111 0.20027971
-0.2778506 0.25806788 1.1261431 0.20027971
-0.26992396 0.25673094 1.1251 0.20027971
-0.26213667 0.25707489 1.1247334 0.20027971
-0.25618035 0.25369152 1.123 0.20027971
-0.29307103 0.25860646 1.1211667 0.20027971
-0.28782618 0.25921708 1.1215001 0.20027971
-0.26875353 0.2598663 1.1220001 0.20027971
-0.25808576 0.2598663 1.1220001 0.20027971
-0.29368234 0.26252943 1.117 0.20027971
-0.2858505 0.26482859 1.1179445 0.20027971
-0.27782291 0.26427513 1.119 0.20027971
-0.26997226 0.26430175 1.1182144 0.20027971
-0.2622363 0.26443151 1.1178668 0.20027971
-0.29360744 0.2667903 1.1135001 0.20027971
-0.28802064 0.26860511 1.1140001 0.20027971
-0.27848813 0.26860511 1.1140001 0.20027971
-0.26995441 0.26854485 1.11375 0.20027971
-0.26154146 0.26860511 1.1140001 0.20027971
-0.29397744 0.27237475 1.1096429 0.20027971
-0.28596261 0.27294505 1.1101251 0.20027971
-0.27789357 0.27331346 1.1116251 0.20027971
-0.26984489 0.2729637 1.1114285 0.20027971
-0.26229399 0.27325061 1.1101429 0.20027971
-0.23063199 0.18541439 1.1160001 0.44164124
-0.23751785 0.18648228 1.110625 0.44164124
-0.24287973 0.18760146 1.1110001 0.44164124
-0.22951327 0.1870386 1.1076667 0.44164124
-0.22597867 0.18760146 1.1110001 0.44164124
-0.24539486 0.19316773 1.1090001 0.44164124
-0.24033368 0.1904251 1.109 0.44164124
-0.23620853 0.18860416 1.1045001 0.44164124
-0.22938591 0.18817724 1.102 0.44164124
-0.22496167 0.1888603 1.1060001 0.44164124
-0.24373631 0.19303066 1.1034 0.44164124
-0.23789519 0.19251876 1.101375 0.44164124
-0.22984672 0.19055262 1.1012 0.44164124
-0.22199655 0.19365129 1.1017274 0.44164124
-0.23003581 0.19401598 1.0971 0.44164124
-0.2366901 0.19462451 1.097 0.44164124
-0.22458954 0.19503164 1.0973333 0.44164124
-0.22152965 0.1972578 1.0942501 0.44164124
-0.20416832 0.075862445 1.1803335 0.2008933
-0.24601722 0.080461666 1.1819001 0.2008933
-0.22947519 0.080732904 1.1822224 0.2008933
-0.22253239 0.080501989 1.1825 0.2008933
-0.21288796 0.079904377 1.182 0.2008933
-0.20616107 0.079220474 1.1825715 0.2008933
-0.23784533 0.081859477 1.1835715 0.2008933
-0.20608477 0.082736924 1.1888001 0.2008933
-0.21999422 0.083062395 1.187 0.2008933
-0.21435136 0.083062395 1.187 0.2008933
-0.24567521 0.085223712 1.1856668 0.2008933
-0.23775157 0.085211739 1.1855 0.2008933
-0.22982763 0.085199751 1.1853334 0.2008933
-0.22544703 0.085247681 1.1860001 0.2008933
-0.22233026 0.088111527 1.1907779 0.2008933
-0.21423459 0.087662861 1.1909093 0.2008933
-0.20664057 0.086586758 1.192 0.2008933
-0.24606873 0.090385847 1.1915455 0.2008933
-0.23809417 0.089882508 1.1906002 0.2008933
-0.22976148 0.090126514 1.1908334 0.2008933
-0.20544115 0.091039121 1.1969 0.2008933
-0.22034074 0.092143603 1.1950001 0.2008933
-0.21295556 0.092143603 1.1950001 0.2008933
-0.24595137 0.095222525 1.198 0.2008933
-0.23812768 0.095282137 1.19875 0.2008933
-0.23013353 0.095275514 1.1986667 0.2008933
-0.2225419 0.09544111 1.2007501 0.2008933
-0.21471421 0.09551397 1.2016667 0.2008933
-0.2132909 0.097048588 1.2065001 0.2008933
-0.20591621 0.095672935 1.2036667 0.2008933
-0.24685077 0.099100187 1.2055715 0.2008933
-0.23747206 0.098233074 1.207 0.2008933
-0.229629 0.098314464 1.2080001 0.2008933
-0.22190952 0.098456889 1.2097501 0.2008933
-0.21292835 0.09855862 1.2110001 0.2008933
-0.20623194 0.09866035 1.21225 0.2008933
-0.24401601 0.10086142 1.2110001 0.2008933
-0.23723753 0.10091694 1.2116667 0.2008933
-0.23269406 0.10094471 1.212 0.2008933
-0.22827286 0.10102799 1.2130001 0.2008933
-0.2215964 0.10113905 1.2143334 0.2008933
-0.22836559 0.18382972 1.1333333 0.46022728
-0.22239351 0.18536881 1.1342858 0.46022728
-0.22816157 0.18601705 1.1270001 0.46022728
-0.2211659 0.18736854 1.1274002 0.46022728
-0.2159425 0.18750255 1.136 0.46022728
-0.22365563 0.18799797 1.1184 0.46022728
-0.21675874 0.18849404 1.1290001 0.46022728
-0.21214338 0.19239073 1.133 0.46022728
-0.21889871 0.18984358 1.118 0.46022728
-0.21475573 0.19252443 1.1185714 0.46022728
-0.21359143 0.19211407 1.1268572 0.46022728
-0.20872444 0.19330005 1.1320001 0.46022728
-0.22078438 0.19114679 1.1101252 0.46022728
-0.21435697 0.19499505 1.1110001 0.46022728
-0.20743565 0.19638325 1.125 0.46022728
-0.21720535 0.19586453 1.1040001 0.46022728
-0.20983037 0.19675787 1.115 0.46022728
-0.20643541 0.20097797 1.1196001 0.46022728
-0.20557332 0.20009427 1.1242001 0.46022728
-0.21348062 0.19845097 1.1032 0.46022728
-0.21297973 0.19786738 1.1093334 0.46022728
-0.20688935 0.20104985 1.1106 0.46022728
-0.21371402 0.20070474 1.0950835 0.46022728
-0.20173071 0.20352212 1.1290001 0.46022728
-0.2071932 0.20161442 1.1010001 0.46022728
-0.24581593 0.16895553 1.2054547 0.20065466
-0.25393251 0.17682339 1.1976154 0.20065466
-0.25206792 0.17296541 1.2 0.20065466
-0.24750419 0.17296541 1.2 0.20065466
-0.24508566 0.17634191 1.1984168 0.20065466
-0.23787306 0.1767009 1.1999285 0.20065466
-0.23034184 0.17634757 1.1997503 0.20065466
-0.22648507 0.17461367 1.2035 0.20065466
-0.21394281 0.17682616 1.1999 0.20065466
-0.22233327 0.17861319 1.1996251 0.20065466
-0.25339553 0.18216753 1.1955001 0.20065466
-0.24533673 0.1813342 1.1950001 0.20065466
-0.23784907 0.18197076 1.1962001 0.20065466
-0.22962217 0.18148594 1.1960001 0.20065466
-0.22099294 0.18423632 1.1956923 0.20065466
-0.21509874 0.18214224 1.1953335 0.20065466
-0.21270226 0.18534951 1.1932224 0.20065466
-0.25420335 0.18612549 1.1924286 0.20065466
-0.24612626 0.18517518 1.1918182 0.20065466
-0.2388082 0.18400234 1.1926666 0.20065466
-0.22947495 0.18409266 1.1918572 0.20065466
-0.23178542 0.18326354 1.1686667 0.20065466
-0.23097944 0.18428679 1.174 0.20065466
-0.22337651 0.18676597 1.1910001 0.20065466
-0.24007523 0.18716796 1.1840001 0.20065466
-0.22786471 0.18706895 1.181 0.20065466
-0.22431634 0.18792033 1.184 0.20065466
-0.25506836 0.19024716 1.1891668 0.20065466
-0.24841772 0.18930824 1.1880001 0.20065466
-0.24389808 0.1884318 1.1825001 0.20065466
-0.22080256 0.19140418 1.1893334 0.20065466
-0.21360786 0.19285741 1.1903999 0.20065466
-0.25339592 0.19232441 1.1822501 0.20065466
-0.2468152 0.19033103 1.1803334 0.20065466
-0.21868128 0.1957553 1.1860001 0.20065466
-0.21642603 0.1957553 1.1860001 0.20065466
-0.2135815 0.19859415 1.1827501 0.20065466
-0.21123174 0.19842795 1.1885 0.20065466
-0.19856383 0.0824733 1.1893333 0.20103565
-0.18155248 0.082449973 1.189 0.20103565
-0.1740144 0.082073458 1.189 0.20103565
-0.16613764 0.082091033 1.18925 0.20103565
-0.1582419 0.082327485 1.1894 0.20103565
-0.15107048 0.0824733 1.1893333 0.20103565
-0.19000168 0.08327233 1.1900001 0.20103565
-0.19821347 0.085660987 1.19175 0.20103565
-0.19016136 0.085607074 1.1910001 0.20103565
-0.18164538 0.086104296 1.1916001 0.20103565
-0.1741495 0.086471707 1.1925001 0.20103565
-0.1648905 0.086282507 1.1925001 0.20103565
-0.15748678 0.085696921 1.19225 0.20103565
-0.14943819 0.085631035 1.1913334 0.20103565
-0.19800329 0.089479096 1.1973333 0.20103565
-0.18998125 0.089454502 1.197 0.20103565
-0.18246953 0.08968173 1.197 0.20103565
-0.17358099 0.090277418 1.1971428 0.20103565
-0.16656451 0.089696489 1.1972001 0.20103565
-0.15819666 0.089501098 1.197625 0.20103565
-0.15025383 0.089516938 1.1978334 0.20103565
-0.1983882 0.093073756 1.1996667 0.20103565
-0.19033907 0.093041435 1.19925 0.20103565
-0.18242081 0.093073756 1.1996666 0.20103565
-0.1739589 0.093022026 1.199 0.20103565
-0.16645215 0.093073756 1.1996666 0.20103565
-0.15854353 0.09311901 1.20025 0.20103565
-0.14953956 0.093196593 1.2012501 0.20103565
-0.19828859 0.095858395 1.2060001 0.20103565
-0.19026305 0.095858403 1.2060001 0.20103565
-0.18219808 0.095838524 1.2057501 0.20103565
-0.17416196 0.095831901 1.2056668 0.20103565
-0.16618361 0.095858403 1.2060001 0.20103565
-0.15824391 0.095911391 1.2066667 0.20103565
-0.15040907 0.096037239 1.20825 0.20103565
-0.19737671 0.09884347 1.2145001 0.20103565
-0.18921667 0.098802775 1.2140001 0.20103565
-0.18234061 0.098829903 1.2143334 0.20103565
-0.17431885 0.098863818 1.2147501 0.20103565
-0.16631357 0.098911293 1.2153333 0.20103565
-0.15827912 0.098945208 1.2157501 0.20103565
-0.15042461 0.099101186 1.2176666 0.20103565
-0.19790512 0.10142361 1.21775 0.20103565
-0.17956498 0.10152772 1.2190001 0.20103565
-0.17608798 0.10152772 1.2190001 0.20103565
-0.16565698 0.10152772 1.2190001 0.20103565
-0.20653367 0.17686337 1.1990771 0.19755492
-0.20351522 0.17454159 1.2030001 0.19755492
-0.19910575 0.17468637 1.2040001 0.19755492
-0.19738379 0.17760098 1.2005001 0.19755492
-0.1899118 0.17665878 1.199643 0.19755492
-0.18175249 0.1763221 1.1995715 0.19755492
-0.17835188 0.17339781 1.2030001 0.19755492
-0.17496093 0.17838746 1.2006668 0.19755492
-0.17316413 0.17572713 1.2032858 0.19755492
-0.16583911 0.17461462 1.2035002 0.19755492
-0.1575865 0.17519762 1.2041429 0.19755492
-0.16596445 0.17863391 1.2008572 0.19755492
-0.15864266 0.17919898 1.2010001 0.19755492
-0.20686451 0.18531451 1.1930002 0.19755492
-0.20411544 0.18236493 1.1958001 0.19755492
-0.19786549 0.18269865 1.1965001 0.19755492
-0.18978336 0.1825842 1.19575 0.19755492
-0.18176062 0.18138479 1.1953334 0.19755492
-0.17341262 0.18441299 1.1968461 0.19755492
-0.16604684 0.18501019 1.19675 0.19755492
-0.15846056 0.18374625 1.1972728 0.19755492
-0.18182974 0.18576226 1.1928 0.19755492
-0.19825576 0.18654469 1.1920002 0.19755492
-0.189785 0.18649457 1.1927143 0.19755492
-0.17621134 0.18718456 1.1936667 0.19755492
-0.15695959 0.18744531 1.1934 0.19755492
-0.2062546 0.19174631 1.1891251 0.19755492
-0.19715509 0.19113046 1.1881001 0.19755492
-0.18960695 0.19251846 1.1888182 0.19755492
-0.18189067 0.19281566 1.18875 0.19755492
-0.17373212 0.19293751 1.1914999 0.19755492
-0.16608751 0.19286871 1.19025 0.19755492
-0.1585687 0.19114922 1.1894287 0.19755492
-0.20393614 0.19454515 1.1855 0.19755492
-0.19880125 0.1948202 1.1858 0.19755492
-0.19274591 0.1957553 1.1860001 0.19755492
-0.20599771 0.20086598 1.1851112 0.19755492
-0.19816083 0.20116562 1.1846668 0.19755492
-0.19043064 0.2018304 1.1840001 0.19755492
-0.1895227 0.19817752 1.187 0.19755492
-0.18500839 0.19817752 1.187 0.19755492
-0.18158455 0.20089382 1.1830833 0.19755492
-0.173869 0.19834448 1.1880001 0.19755492
-0.24818523 0.19986884 1.10875 0.39528719
-0.24669395 0.20077805 1.1060001 0.39528719
-0.24314694 0.201105 1.0963334 0.39528719
-0.23790295 0.1999979 1.0926154 0.39528719
-0.23025684 0.19748345 1.0932001 0.39528719
-0.22982651 0.20165649 1.0869231 0.39528719
-0.22212976 0.20008154 1.0869999 0.39528719
-0.21535863 0.20290132 1.0878572 0.39528719
-0.23669034 0.20321345 1.0890001 0.39528719
-0.23949301 0.20798703 1.0923334 0.39528719
-0.22123241 0.2036151 1.0816 0.39528719
-0.23606722 0.20925561 1.0874 0.39528719
-0.23083305 0.20912462 1.0841819 0.39528719
-0.22703369 0.20776768 1.0818001 0.39528719
-0.2211602 0.20668869 1.0810001 0.39528719
-0.21686326 0.20722449 1.0865 0.39528719
-0.2222133 0.21113093 1.0864002 0.39528719
-0.21506123 0.23201053 1.0913334 0.21331009
-0.21245909 0.23256344 1.0874444 0.21331009
-0.20670637 0.23002695 1.082 0.21331009
-0.20531036 0.23319739 1.0861112 0.21331009
-0.22220881 0.24250256 1.1012857 0.21331009
-0.21895903 0.23947518 1.097 0.21331009
-0.21388333 0.24032317 1.0954287 0.21331009
-0.20601249 0.24081106 1.0936 0.21331009
-0.22860456 0.24625146 1.1135001 0.21331009
-0.21418169 0.24414566 1.0992501 0.21331009
-0.20890915 0.24409014 1.0990001 0.21331009
-0.22629492 0.25004983 1.1022501 0.21331009
-0.22290905 0.24695124 1.0993334 0.21331009
-0.22049299 0.24956928 1.0965556 0.21331009
-0.21390656 0.24939322 1.0942777 0.21331009
-0.2130888 0.24617997 1.0990001 0.21331009
-0.20833446 0.24984583 1.0928571 0.21331009
-0.20249408 0.24349192 1.087 0.21331009
-0.19731036 0.24374561 1.08125 0.21331009
-0.20381047 0.24926643 1.0877143 0.21331009
-0.19847643 0.2464869 1.082 0.21331009
-0.22675684 0.25686467 1.1045001 0.21331009
-0.22115891 0.25623572 1.0958334 0.21331009
-0.21489692 0.25729722 1.0912001 0.21331009
-0.21333253 0.25649932 1.0895716 0.21331009
-0.20649242 0.25701264 1.09175 0.21331009
-0.22249296 0.25976384 1.0990001 0.21331009
-0.22316419 0.26501045 1.1015714 0.21331009
-0.21889251 0.26442704 1.0966667 0.21331009
-0.21380976 0.26549858 1.0944616 0.21331009
-0.22208725 0.27308783 1.1021668 0.21331009
-0.21571025 0.27395207 1.1003751 0.21331009
-0.20544505 0.20934814 1.1200001 0.41827789
-0.20758007 0.20410459 1.0975001 0.41827789
-0.2071932 0.20614998 1.1010001 0.41827789
-0.20680721 0.20962572 1.1101667 0.41827789
-0.21374266 0.20804814 1.0947143 0.41827789
-0.21152458 0.20960894 1.10175 0.41827789
-0.21042989 0.21218643 1.107 0.41827789
-0.20785445 0.21760631 1.112 0.41827789
-0.20472662 0.21774627 1.1185715 0.41827789
-0.21836023 0.21177495 1.0940001 0.41827789
-0.21607205 0.21633069 1.1035715 0.41827789
-0.21284719 0.21767373 1.1086364 0.41827789
-0.20428196 0.22208667 1.1102002 0.41827789
-0.21455771 0.22346617 1.1020834 0.41827789
-0.20667802 0.22347279 1.1038333 0.41827789
-0.1975964 0.22554775 1.1106001 0.41827789
-0.19860677 0.22613128 1.1031429 0.41827789
-0.20606332 0.2253512 1.095 0.41827789
-0.20516378 0.22729397 1.0853333 0.41827789
-0.1996351 0.22685625 1.0940001 0.41827789
-0.19388115 0.23147972 1.1086668 0.41827789
-0.20079587 0.2273735 1.0890001 0.41827789
-0.20039266 0.23255126 1.0938751 0.41827789
-0.1973556 0.2326608 1.1028571 0.41827789
-0.19669861 0.23788905 1.1032001 0.41827789
-0.20323925 0.23608951 1.0910001 0.41827789
-0.19887647 0.23848951 1.0944002 0.41827789
-0.18994945 0.24199818 1.1021668 0.41827789
-0.19138584 0.24223295 1.0944 0.41827789
-0.19788337 0.2413003 1.0864545 0.41827789
-0.1927191 0.24199435 1.08725 0.41827789
-0.19197601 0.24870548 1.0954001 0.22291102
-0.18902294 0.24996701 1.1018751 0.22291102
-0.19712876 0.24936223 1.0865556 0.22291102
-0.1923359 0.24578485 1.0880001 0.22291102
-0.19511952 0.2508415 1.092 0.22291102
-0.18832402 0.25391579 1.1008333 0.22291102
-0.18498535 0.25681528 1.1034 0.22291102
-0.1817205 0.25747299 1.1116668 0.22291102
-0.19797991 0.25673288 1.0919232 0.22291102
-0.19065844 0.25706232 1.0944999 0.22291102
-0.18575205 0.2584835 1.098 0.22291102
-0.18291433 0.26485771 1.1125002 0.22291102
-0.18724841 0.26539055 1.1006668 0.22291102
-0.1850023 0.26457304 1.1060001 0.22291102
-0.20647226 0.26375815 1.0953333 0.22291102
-0.19716837 0.26346505 1.0951428 0.22291102
-0.19066012 0.26346439 1.0955557 0.22291102
-0.20503812 0.26748323 1.1006668 0.22291102
-0.19870277 0.2674022 1.1003333 0.22291102
-0.20429204 0.27198187 1.100875 0.22291102
-0.19852866 0.27277794 1.1038461 0.22291102
-0.19067396 0.27194506 1.1036667 0.22291102
-0.21128097 0.27251527 1.0977501 0.22291102
-0.20705424 0.27389771 1.0965556 0.22291102
-0.18808906 0.27480158 1.1076666 0.22291102
-0.20073056 0.27978155 1.1046001 0.22291102
-0.19766405 0.28142965 1.1086 0.22291102
-0.19148465 0.27849501 1.107 0.22291102
-0.21663772 0.27830809 1.0993334 0.22291102
-0.21306182 0.28147182 1.0957059 0.22291102
-0.20727701 0.27994192 1.097 0.22291102
-0.20479241 0.28163305 1.10075 0.22291102
-0.20497878 0.28724104 1.1026 0.22291102
-0.20338057 0.28821728 1.1106666 0.22291102
-0.1985158 0.28870445 1.1110001 0.22291102
-0.20171058 0.29056898 1.1170001 0.22291102
-0.24560575 0.21784283 1.1090001 0.35582283
-0.23735152 0.21826974 1.09525 0.35582283
-0.22178073 0.21553789 1.0955001 0.35582283
-0.22115092 0.21871181 1.102 0.35582283
-0.2408029 0.21846083 1.1015 0.35582283
-0.23485473 0.21588632 1.0885 0.35582283
-0.23007964 0.21425784 1.0855 0.35582283
-0.22564545 0.21494865 1.0890001 0.35582283
-0.22990172 0.21811552 1.0945001 0.35582283
-0.23620063 0.22327827 1.102 0.35582283
-0.22961423 0.22366513 1.1047778 0.35582283
-0.22218859 0.22393405 1.1006001 0.35582283
-0.23754445 0.22769037 1.1107501 0.35582283
-0.23126121 0.22774161 1.1110001 0.35582283
-0.21401417 0.22685371 1.0948334 0.35582283
-0.23847985 0.23316711 1.119 0.35582283
-0.2327935 0.23315132 1.1166667 0.35582283
-0.22930351 0.23317981 1.1117501 0.35582283
-0.22057489 0.22753008 1.09725 0.35582283
-0.22344455 0.23314491 1.1006 0.35582283
-0.22018433 0.2312994 1.0961667 0.35582283
-0.21095596 0.2271647 1.0880001 0.35582283
-0.23021531 0.24102919 1.1187501 0.35582283
-0.22584307 0.24027319 1.1103334 0.35582283
-0.20613344 0.20274782 1.1873335 0.2176352
-0.20545115 0.20845111 1.182875 0.2176352
-0.19770585 0.20826571 1.1838572 0.2176352
-0.20306559 0.21059188 1.187 0.2176352
-0.20565625 0.20975845 1.176 0.2176352
-0.19976446 0.21180966 1.1875 0.2176352
-0.20272344 0.2136171 1.1850001 0.2176352
-0.20000669 0.21589153 1.1876001 0.2176352
-0.19691975 0.21775568 1.183 0.2176352
-0.20320795 0.21168056 1.1620001 0.2176352
-0.20220917 0.21295574 1.169 0.2176352
-0.19998626 0.21295574 1.169 0.2176352
-0.20294565 0.21692328 1.1605 0.2176352
-0.2020362 0.21499461 1.1680001 0.2176352
-0.2007532 0.21702871 1.1670001 0.2176352
-0.19880089 0.22524704 1.175143 0.2176352
-0.19712202 0.22367707 1.1801251 0.2176352
-0.1987538 0.22635153 1.1670001 0.2176352
-0.19414434 0.22949366 1.174 0.2176352
-0.19768393 0.22935753 1.1620001 0.2176352
-0.19487134 0.22994967 1.1650001 0.2176352
-0.18940499 0.23252103 1.1668001 0.2176352
-0.19092725 0.23243856 1.159 0.2176352
-0.25419948 0.24879071 1.1270715 0.1951406
-0.24637398 0.24874233 1.126091 0.1951406
-0.23884396 0.24761906 1.1236364 0.1951406
-0.23664574 0.2496213 1.1215001 0.1951406
-0.23232816 0.25004056 1.1178335 0.1951406
-0.25168511 0.25133207 1.1220001 0.1951406
-0.24635126 0.25133207 1.1220001 0.1951406
-0.25339869 0.25672647 1.1210002 0.1951406
-0.24611662 0.2568759 1.1209286 0.1951406
-0.24657083 0.25369152 1.123 0.1951406
-0.2386543 0.25665012 1.120154 0.1951406
-0.23264892 0.25673798 1.1176667 0.1951406
-0.25382102 0.26408896 1.1173126 0.1951406
-0.24604924 0.26215839 1.1170001 0.1951406
-0.23795941 0.26308602 1.1165557 0.1951406
-0.23241721 0.26362777 1.1172857 0.1951406
-0.2272701 0.26060221 1.107 0.1951406
-0.24564382 0.26669025 1.1128889 0.1951406
-0.23842573 0.26700556 1.1132222 0.1951406
-0.2298211 0.2664341 1.1108333 0.1951406
-0.25412726 0.26860511 1.1140001 0.1951406
-0.25405508 0.27268374 1.1090626 0.1951406
-0.24584162 0.27293006 1.1100626 0.1951406
-0.23781964 0.2721943 1.1093848 0.1951406
-0.23025465 0.27040014 1.1092001 0.1951406
-0.2295453 0.27424651 1.1039231 0.1951406
-0.23673338 0.27629012 1.1045001 0.1951406
-0.24726784 0.27744249 1.107 0.1951406
-0.23833115 0.27989641 1.1021667 0.1951406
-0.23026745 0.27841371 1.0992 0.1951406
-0.22259371 0.27869871 1.0995001 0.1951406
-0.20431916 0.209325 1.1275001 0.21973525
-0.20177537 0.20893624 1.12925 0.21973525
-0.20241232 0.21076097 1.1450001 0.21973525
-0.20241232 0.21620421 1.1450001 0.21973525
-0.20445107 0.21587573 1.12625 0.21973525
-0.20316342 0.214636 1.131 0.21973525
-0.20110418 0.21899107 1.1285001 0.21973525
-0.20258911 0.22184102 1.146 0.21973525
-0.20040992 0.22293061 1.146 0.21973525
-0.19874965 0.2235142 1.149 0.21973525
-0.20225234 0.22106749 1.12 0.21973525
-0.19802061 0.22501029 1.12775 0.21973525
-0.20082533 0.22279868 1.118 0.21973525
-0.19544905 0.23010206 1.151 0.21973525
-0.19553831 0.22995424 1.143 0.21973525
-0.18967006 0.23215525 1.1496 0.21973525
-0.19468294 0.23111232 1.138 0.21973525
-0.19030213 0.23264724 1.1420001 0.21973525
-0.19425227 0.23020148 1.123 0.21973525
-0.19075935 0.23245636 1.1340001 0.21973525
-0.18358417 0.23430122 1.143 0.21973525
-0.19129033 0.23459318 1.1197501 0.21973525
-0.18920267 0.2333847 1.126 0.21973525
-0.18235211 0.23509648 1.126 0.21973525
-0.181978 0.23440583 1.133 0.21973525
-0.18483393 0.23568596 1.1220001 0.21973525
-0.17795748 0.23551634 1.128 0.21973525
-0.17978311 0.23830861 1.126 0.21973525
-0.17688309 0.24195157 1.1280001 0.21973525
-0.19586958 0.2355544 1.1079999 0.21973525
-0.18908323 0.23974021 1.1177 0.21973525
-0.18203783 0.24125294 1.1188 0.21973525
-0.19097435 0.24034694 1.1092857 0.21973525
-0.17535968 0.24280924 1.1320001 0.21973525
-0.17701091 0.24493138 1.1220001 0.21973525
-0.17526701 0.24868315 1.1245 0.21973525
-0.17474528 0.24992566 1.1350001 0.21973525
-0.18583865 0.24464275 1.1110001 0.21973525
-0.18106343 0.24883069 1.1169287 0.21973525
-0.17690574 0.24905105 1.1213335 0.21973525
-0.17395554 0.25190935 1.1440001 0.21973525
-0.18752837 0.24725264 1.1085 0.21973525
-0.18453175 0.24993698 1.1094999 0.21973525
-0.17384498 0.25793612 1.1338334 0.21973525
-0.1850023 0.24985114 1.1060001 0.21973525
-0.176082 0.25663239 1.1238573 0.21973525
-0.17971446 0.25587353 1.1176 0.21973525
-0.15725866 0.19475417 1.1854 0.19967802
-0.16342767 0.1957553 1.1860001 0.19967802
-0.16605304 0.20063479 1.183077 0.19967802
-0.15835336 0.20083545 1.1817857 0.19967802
-0.14937328 0.20069131 1.181875 0.19967802
-0.17422445 0.20196418 1.1827501 0.19967802
-0.15448515 0.20115499 1.1780001 0.19967802
-0.19056873 0.2070179 1.1795 0.19967802
-0.18167353 0.20598419 1.1800001 0.19967802
-0.1726741 0.20707607 1.1798333 0.19967802
-0.16591996 0.20816818 1.1796666 0.19967802
-0.15702765 0.20860121 1.1802858 0.19967802
-0.15921126 0.2092301 1.1777501 0.19967802
-0.15009293 0.20848608 1.184 0.19967802
-0.18941066 0.21012805 1.1762857 0.19967802
-0.18216169 0.2097417 1.1759168 0.19967802
-0.17449723 0.20993555 1.1769999 0.19967802
-0.14807615 0.21216638 1.1895001 0.19967802
-0.166592 0.21208481 1.1765001 0.19967802
-0.15550464 0.21523097 1.1815001 0.19967802
-0.15024433 0.21647575 1.1834 0.19967802
-0.14986522 0.21682709 1.1902502 0.19967802
-0.18962801 0.21715248 1.1736667 0.19967802
-0.18168548 0.21651074 1.1713998 0.19967802
-0.17384227 0.21695083 1.1725832 0.19967802
-0.16611142 0.21548593 1.1731001 0.19967802
-0.158464 0.21614945 1.1742858 0.19967802
-0.16622671 0.21877217 1.1692002 0.19967802
-0.15826775 0.21930952 1.1673334 0.19967802
-0.15194102 0.21864142 1.1756667 0.19967802
-0.17790908 0.21981242 1.1700001 0.19967802
-0.15040673 0.21992368 1.1666667 0.19967802
-0.18971771 0.22507244 1.1742222 0.19967802
-0.18362796 0.22445375 1.171 0.19967802
-0.17431135 0.22503467 1.1682501 0.19967802
-0.16616818 0.22453676 1.1656667 0.19967802
-0.15846843 0.22452834 1.1644665 0.19967802
-0.18098815 0.22616367 1.1683334 0.19967802
-0.15045348 0.2252145 1.1620001 0.19967802
-0.18965286 0.23057635 1.1738335 0.19967802
-0.17254029 0.25685838 1.1418334 0.21820374
-0.16208076 0.25901628 1.1370001 0.21820374
-0.17109622 0.26207867 1.1346667 0.21820374
-0.16778055 0.26163778 1.1390001 0.21820374
-0.1662152 0.26342195 1.1338751 0.21820374
-0.17701091 0.2598663 1.1220001 0.21820374
-0.17204414 0.26374179 1.1258 0.21820374
-0.17920919 0.26531437 1.1167144 0.21820374
-0.17438656 0.26525956 1.12 0.21820374
-0.1663079 0.26680848 1.1261001 0.21820374
-0.16314283 0.26840052 1.1220001 0.21820374
-0.17879635 0.27132958 1.1165 0.21820374
-0.17320946 0.27066225 1.118125 0.21820374
-0.16612951 0.27183202 1.1177 0.21820374
-0.18290111 0.27340618 1.1111333 0.21820374
-0.17394371 0.27443177 1.1110909 0.21820374
-0.1820952 0.27756777 1.1075 0.21820374
-0.17259073 0.27752602 1.1073333 0.21820374
-0.18923017 0.28207558 1.1042306 0.21820374
-0.18168624 0.28119865 1.1022859 0.21820374
-0.19065177 0.28670904 1.1021667 0.21820374
-0.19854549 0.28996477 1.1018 0.21820374
-0.18199752 0.2333862 1.1665 0.20225511
-0.17429285 0.23223226 1.1644168 0.20225511
-0.16584489 0.23096116 1.1634001 0.20225511
-0.16608956 0.23417686 1.16125 0.20225511
-0.15773514 0.23234278 1.1596875 0.20225511
-0.1501921 0.23337838 1.1581179 0.20225511
-0.1722734 0.23524983 1.1620001 0.20225511
-0.18402803 0.23547867 1.1595001 0.20225511
-0.18048541 0.24048992 1.1597502 0.20225511
-0.17921014 0.23860598 1.164 0.20225511
-0.17692071 0.23960924 1.1635001 0.20225511
-0.17368108 0.24144992 1.1596001 0.20225511
-0.16676298 0.23925214 1.1575 0.20225511
-0.15936311 0.2381672 1.1565001 0.20225511
-0.15729752 0.24219674 1.1530001 0.20225511
-0.16415904 0.24275872 1.1535002 0.20225511
-0.17467926 0.24575891 1.1560001 0.20225511
-0.16903931 0.24554633 1.1550001 0.20225511
-0.1664726 0.24947007 1.1511668 0.20225511
-0.1725077 0.24968888 1.1501819 0.20225511
-0.16336374 0.25234976 1.146 0.20225511
-0.16118455 0.25234976 1.146 0.20225511
-0.17128834 0.25497317 1.148 0.20225511
-0.16801482 0.25497314 1.148 0.20225511
-0.1659798 0.25716224 1.142077 0.20225511
-0.32597959 0.10553554 1.2296667 0.20423003
-0.31899983 0.10558169 1.2284001 0.20423003
-0.31659099 0.10315051 1.2245001 0.20423003
-0.33415821 0.10588159 1.2291666 0.20423003
-0.34232703 0.1097573 1.2333333 0.20423003
-0.33402771 0.10972764 1.233 0.20423003
-0.32530016 0.11064807 1.2328001 0.20423003
-0.31785896 0.11131393 1.232 0.20423003
-0.30914965 0.11134511 1.2250001 0.20423003
-0.34205827 0.11357624 1.2384285 0.20423003
-0.33425081 0.11372054 1.2381668 0.20423003
-0.3272689 0.11413138 1.23625 0.20423003
-0.31099576 0.11472372 1.23 0.20423003
-0.31947649 0.11466435 1.2356668 0.20423003
-0.3432368 0.11889033 1.243 0.20423003
-0.34145617 0.12211233 1.2397501 0.20423003
-0.3367368 0.1177085 1.243 0.20423003
-0.33402976 0.12086908 1.2391001 0.20423003
-0.32638985 0.1192338 1.237375 0.20423003
-0.31799528 0.11842899 1.2364285 0.20423003
-0.31089351 0.12152154 1.2307501 0.20423003
-0.32536703 0.12325899 1.2335 0.20423003
-0.31870183 0.12258965 1.2326669 0.20423003
-0.33077884 0.12389583 1.2340001 0.20423003
-0.30557033 0.12319302 1.2270001 0.20423003
-0.33448243 0.12858358 1.2295001 0.20423003
-0.32593289 0.12806579 1.2290001 0.20423003
-0.31799358 0.12945606 1.2285385 0.20423003
-0.31062233 0.12838806 1.2276002 0.20423003
-0.30275378 0.12904626 1.2241818 0.20423003
-0.33213136 0.1324179 1.2260001 0.20423003
-0.32630309 0.1324179 1.2260001 0.21827072
-0.30881825 0.1324179 1.2260001 0.21827072
-0.33421028 0.13663378 1.223909 0.21827072
-0.32520813 0.13716243 1.2210909 0.21827072
-0.31811732 0.13700996 1.2236667 0.21827072
-0.30989295 0.1370658 1.2237999 0.21827072
-0.30200207 0.13663265 1.222 0.21827072
-0.33421424 0.14230579 1.2208334 0.21827072
-0.32961592 0.14116511 1.2210001 0.21827072
-0.32533193 0.14081827 1.2180001 0.21827072
-0.31658652 0.1422085 1.22 0.21827072
-0.31019562 0.14207597 1.2202857 0.21827072
-0.30266663 0.141629 1.22 0.21827072
-0.32589516 0.14518321 1.2157778 0.21827072
-0.31821778 0.14562425 1.2156001 0.21827072
-0.30167419 0.14520954 1.2159998 0.21827072
-0.3417199 0.14630471 1.2168572 0.21827072
-0.33370703 0.14660065 1.2165716 0.21827072
-0.30976844 0.14636654 1.2160001 0.21827072
-0.34223813 0.14937417 1.21225 0.21827072
-0.33419165 0.14938444 1.2123333 0.21827072
-0.32548282 0.15277267 1.2117859 0.21827072
-0.31774867 0.15154348 1.2111667 0.21827072
-0.31054202 0.15023986 1.2118 0.21827072
-0.30091208 0.15072618 1.212 0.21827072
-0.34212357 0.15341496 1.207778 0.21827072
-0.33412191 0.15343331 1.2079167 0.21827072
-0.32894731 0.15254827 1.21 0.21827072
-0.31744289 0.15369871 1.21 0.21827072
-0.3099969 0.15357052 1.209 0.21827072
-0.30280057 0.15373656 1.2085001 0.21827072
-0.2967349 0.15599962 1.21 0.21827072
-0.34230566 0.15870959 1.204375 0.21827072
-0.33391985 0.16017824 1.2048889 0.21827072
-0.33120006 0.16148935 1.2132001 0.21827072
-0.32615334 0.15985191 1.2142859 0.21827072
-0.32036036 0.16091301 1.2123333 0.21827072
-0.31581399 0.16035743 1.2081667 0.21827072
-0.3102192 0.16041598 1.2047778 0.21827072
-0.30230948 0.16119589 1.2001666 0.21827072
-0.29906887 0.15885748 1.2055001 0.21827072
-0.33592361 0.16297898 1.2004001 0.21827072
-0.32720542 0.16433835 1.2206668 0.21827072
-0.3082304 0.16283157 1.201 0.21827072
-0.33261701 0.16819751 1.215 0.21827072
-0.33253834 0.16928978 1.2063334 0.21827072
-0.31230527 0.16774902 1.2035 0.21827072
-0.28578824 0.10286605 1.2075001 0.21350004
-0.27794382 0.10293704 1.2083334 0.21350004
-0.27372605 0.10307902 1.21 0.21350004
-0.26989058 0.10568202 1.2134445 0.21350004
-0.26178971 0.10567182 1.2133335 0.21350004
-0.25399262 0.10578761 1.2146667 0.21350004
-0.25067464 0.10633982 1.2210001 0.21350004
-0.2938982 0.10685916 1.2118572 0.21350004
-0.28589803 0.10678092 1.2128335 0.21350004
-0.27777857 0.1067623 1.212625 0.21350004
-0.25043768 0.11308552 1.23125 0.21350004
-0.29435143 0.11232764 1.2160001 0.21350004
-0.28637135 0.111063 1.2168 0.21350004
-0.27747169 0.11171511 1.2163333 0.21350004
-0.27036962 0.1114203 1.2173333 0.21350004
-0.26096153 0.11154441 1.217 0.21350004
-0.2560246 0.11139 1.217 0.21350004
-0.25343516 0.11390265 1.2218889 0.21350004
-0.30221307 0.11499737 1.2205001 0.21350004
-0.28579649 0.11448294 1.2194288 0.21350004
-0.2693778 0.11474202 1.2198334 0.21350004
-0.26281038 0.115022 1.2207501 0.21350004
-0.29198802 0.11543578 1.2190001 0.21350004
-0.27808002 0.11543578 1.2190001 0.21350004
-0.30176091 0.12073556 1.2231113 0.21350004
-0.29381084 0.12164332 1.2208002 0.21350004
-0.28631598 0.12018589 1.2225001 0.21350004
-0.27798161 0.12060679 1.2222728 0.21350004
-0.26995558 0.12014667 1.2221 0.21350004
-0.26188692 0.12068755 1.223091 0.21350004
-0.25434551 0.12054345 1.2237779 0.21350004
-0.25089335 0.11956381 1.2296667 0.21350004
-0.2492145 0.12359463 1.2310001 0.21350004
-0.28586128 0.12880741 1.224077 0.21350004
-0.27797529 0.12870477 1.2246667 0.21350004
-0.27052659 0.12701581 1.2252856 0.21350004
-0.26131982 0.12861957 1.2256923 0.21350004
-0.25396302 0.12888651 1.2256666 0.21350004
-0.2938284 0.12964511 1.2218333 0.21350004
-0.26590571 0.12902607 1.2270001 0.21350004
-0.26947808 0.13178417 1.2273334 0.21350004
-0.29404491 0.13722315 1.2213571 0.20016421
-0.28581259 0.1366695 1.2223334 0.20016421
-0.27798083 0.13681823 1.2236667 0.20016421
-0.27000862 0.13690451 1.2244445 0.20016421
-0.26224834 0.13651045 1.2229999 0.20016421
-0.25420049 0.13770267 1.2212143 0.20016421
-0.29210779 0.1421507 1.2195001 0.20016421
-0.28646612 0.14338773 1.2201666 0.20016421
-0.27797005 0.14371666 1.2207779 0.20016421
-0.27032688 0.14460115 1.220625 0.20016421
-0.26204538 0.14335552 1.2198889 0.20016421
-0.25358483 0.14527729 1.2195386 0.20016421
-0.2945126 0.14580403 1.2166667 0.20016421
-0.27924323 0.14691369 1.2173333 0.20016421
