# .PCD v0.7 - Point Cloud Data file format
VERSION 0.7
FIELDS x y z intensity
SIZE 4 4 4 4
TYPE F F F F
COUNT 1 1 1 1
WIDTH 1065
HEIGHT 1
VIEWPOINT 0 0 0 1 0 0 0
POINTS 1065
DATA ascii
-0.022474583 0.08299242 1.1860001 0.089498356
-0.054009207 0.087618545 1.191375 0.089498356
-0.046727657 0.087800786 1.1928183 0.089498356
-0.03815148 0.088521525 1.1967001 0.089498356
-0.030512817 0.086785085 1.191625 0.089498356
-0.021116756 0.087621763 1.1903636 0.089498356
-0.013523536 0.087963492 1.1922222 0.089498356
-0.0055917962 0.087983929 1.1925001 0.089498356
-0.053384688 0.091691881 1.1965001 0.089498356
-0.045458619 0.092134632 1.1973333 0.089498356
-0.02946222 0.090439327 1.1950001 0.089498356
-0.021531671 0.091691881 1.1965001 0.089498356
-0.054047678 0.094426803 1.2002858 0.089498356
-0.045006633 0.094850771 1.2005001 0.089498356
-0.037449446 0.094178937 1.2012857 0.089498356
-0.029585496 0.0942415 1.2000002 0.089498356
-0.022090083 0.094415709 1.200143 0.089498356
-0.01358971 0.092944443 1.1980001 0.089498356
-0.0056164721 0.092944443 1.1980001 0.089498356
-0.01360925 0.095355004 1.1996666 0.089498356
-0.0056225536 0.095341757 1.1995001 0.089498356
-0.038064379 0.097889498 1.2084 0.089506909
-0.045900285 0.098395847 1.2090001 0.089506909
-0.029807387 0.098395847 1.2090001 0.089506909
-0.021768987 0.098436534 1.2095001 0.089506909
-0.013707562 0.098341592 1.2083335 0.089506909
-0.0056591253 0.098253421 1.20725 0.089506909
-0.053784501 0.1030889 1.2210001 0.089506909
-0.046362195 0.1028713 1.2211667 0.089506909
-0.038264185 0.10295223 1.2221251 0.089506909
-0.030119995 0.10291389 1.2216667 0.089506909
-0.02198782 0.10290986 1.221625 0.089506909
-0.014319512 0.10312297 1.2214 0.089506909
-0.011500483 0.10144443 1.2180001 0.089506909
-0.0057060067 0.10138196 1.21725 0.089506909
8.0011727e-05 0.10144443 1.2180001 0.089506909
-0.0057271039 0.10408 1.22175 0.089506909
-0.053801652 0.10729591 1.2320001 0.089506909
-0.0456567 0.10742655 1.2335001 0.089506909
-0.039809849 0.1074701 1.2340001 0.089506909
-0.036319472 0.10755718 1.235 0.089506909
-0.03279683 0.10755718 1.235 0.089506909
-0.029239111 0.10742655 1.2335 0.089506909
-0.022184869 0.10733946 1.2325001 0.089506909
-0.013983591 0.10735398 1.2326667 0.089506909
-0.0057753795 0.10731769 1.2322501 0.089506909
-0.014050605 0.11257892 1.2385556 0.089506909
-0.0061316462 0.1124711 1.2397274 0.089506909
0.0022644799 0.048822317 1.1512501 0.088661909
0.0096057663 0.049247831 1.1502144 0.088661909
0.018682383 0.051008727 1.15125 0.088661909
0.026325323 0.050968111 1.1503333 0.088661909
0.034004189 0.051003069 1.151125 0.088661909
0.042258125 0.050809804 1.1502857 0.088661909
0.0022761233 0.056775305 1.1572223 0.088661909
0.0099887559 0.0568262 1.15825 0.088661909
0.017705062 0.056857903 1.1588889 0.088661909
0.025381969 0.056776669 1.15725 0.088661909
0.034183014 0.056772575 1.1571668 0.088661909
0.041954394 0.05686881 1.159111 0.088661909
0.0044955569 0.061426401 1.1620001 0.088661909
0.010060455 0.063890822 1.1665833 0.088661909
0.018045228 0.064335182 1.1666 0.088661909
0.025469705 0.061386749 1.16125 0.088661909
0.033210978 0.061408777 1.1616668 0.088661909
0.034698427 0.065734848 1.166 0.088661909
0.041952297 0.064584933 1.1646364 0.088661909
0.025585094 0.066104911 1.1665001 0.088661909
0.003419931 0.068640932 1.1720001 0.088661909
0.010114436 0.068699494 1.1730001 0.088661909
0.016784057 0.068611652 1.1715 0.088661909
0.044268571 0.068055257 1.1620001 0.088661909
0.010140304 0.072230518 1.1760001 0.088661909
0.017946435 0.072148941 1.1746668 0.088661909
0.025761038 0.072139338 1.1745001 0.088661909
0.034300104 0.07296399 1.1737778 0.088661909
0.037866481 0.070688166 1.169 0.088661909
0.04219009 0.071596153 1.1656667 0.088661909
0.031464588 0.075776741 1.179 0.088661909
0.041357085 0.075423256 1.1735001 0.088661909
0.010166172 0.075776741 1.179 0.089498356
0.018018683 0.075798161 1.1793333 0.089498356
0.025881674 0.075841017 1.1800001 0.089498356
0.0023262734 0.079375073 1.1825 0.089498356
0.010200663 0.080084547 1.1830002 0.089498356
0.018074702 0.079408474 1.1830001 0.089498356
0.025971793 0.079484038 1.1841251 0.089498356
0.034094691 0.080236152 1.1827501 0.089498356
0.041667774 0.080484577 1.1822501 0.089498356
-0.0055710161 0.083132371 1.188 0.089498356
0.0023331807 0.083015747 1.1863334 0.089498356
0.010226531 0.08299242 1.1860001 0.089498356
0.018125629 0.083015747 1.1863334 0.089498356
0.02603521 0.083062395 1.187 0.089498356
0.031651396 0.08299242 1.1860001 0.089498356
0.0023434542 0.087914936 1.1915555 0.089498356
0.010262619 0.087812573 1.1901668 0.089498356
0.018200325 0.087890774 1.1912223 0.089498356
0.026133753 0.087911107 1.1915001 0.089498356
0.034032658 0.087832965 1.1904446 0.089498356
0.04191814 0.087751716 1.1893336 0.089498356
0.0023567658 0.092944443 1.1980001 0.089498356
0.010314201 0.092808686 1.1962501 0.089498356
0.018289231 0.092866868 1.197 0.089498356
0.026270282 0.092925049 1.1977501 0.089498356
0.034201439 0.092815153 1.1963334 0.089498356
0.042152464 0.092789285 1.1960001 0.089498356
0.0023607004 0.095381498 1.2 0.089498356
0.010327627 0.095222533 1.1980001 0.089498356
0.018319787 0.095302008 1.199 0.089498356
0.026308428 0.095341757 1.1995 0.089498356
0.034249719 0.095222525 1.1980001 0.089498356
0.042187713 0.095143043 1.197 0.089498356
0.002377728 0.098341592 1.2083334 0.089498356
0.010176962 0.098708771 1.2072002 0.089498356
0.018426733 0.098151684 1.2060001 0.089498356
0.042434424 0.097988911 1.2040001 0.089498356
0.026483424 0.098273769 1.2075 0.11214174
0.034449838 0.098070301 1.205 0.11214174
0.0028691145 0.10319076 1.2222 0.11214174
0.0087994486 0.10358521 1.2227501 0.11214174
0.012802295 0.10131949 1.2165 0.11214174
0.018583976 0.10130561 1.2163334 0.11214174
0.025557103 0.10144443 1.2180001 0.11214174
0.025630543 0.1034792 1.2215 0.11214174
0.034369405 0.10202212 1.2156668 0.11214174
0.041642781 0.10229488 1.2143334 0.11214174
0.048994914 0.10199437 1.2153333 0.11214174
0.017498031 0.1040374 1.2212501 0.11214174
0.031397872 0.10393092 1.22 0.11214174
0.052235093 0.10384573 1.2190001 0.11214174
0.0024275868 0.1074701 1.2340001 0.11214174
0.0024295542 0.10755718 1.235 0.11214174
0.0094524706 0.10732496 1.2323333 0.11214174
0.017637013 0.10720883 1.2310001 0.11214174
0.02582988 0.10720883 1.2310001 0.11214174
0.03395747 0.10701287 1.2287501 0.11214174
0.042078447 0.10686047 1.2270001 0.11214174
0.050296109 0.10696933 1.22825 0.11214174
0.02597676 0.112528 1.2380002 0.11214174
0.033254761 0.1128984 1.2363334 0.11214174
0.036813419 0.11050981 1.2330002 0.11214174
0.041698046 0.11031427 1.233 0.11214174
0.04935807 0.10981663 1.2340001 0.11214174
0.049460921 0.11306977 1.2365714 0.11214174
0.042850293 0.11373734 1.2358 0.11214174
-0.045884479 0.11267965 1.2396668 0.089110196
-0.038141351 0.11136609 1.2408001 0.089110196
-0.030253256 0.11210002 1.2407143 0.089110196
-0.022291914 0.1125741 1.2385 0.089110196
-0.037145644 0.11475395 1.243 0.089110196
-0.031827461 0.11534486 1.243 0.089110196
-0.045942143 0.12107699 1.2411875 0.089110196
-0.03775363 0.12131112 1.2435834 0.089110196
-0.030878622 0.12100279 1.2437273 0.089110196
-0.02188256 0.12092026 1.2420002 0.089110196
-0.013493438 0.11992797 1.2415001 0.089110196
-0.023167422 0.12168076 1.2433333 0.089110196
-0.015285306 0.12364224 1.24325 0.089110196
-0.028259249 0.12469904 1.2420001 0.089110196
-0.045857433 0.12909995 1.2389169 0.089110196
-0.037676472 0.12931706 1.2410001 0.089110196
-0.030557772 0.12915517 1.2394444 0.089110196
-0.022309439 0.12915285 1.2394167 0.089110196
-0.014066981 0.12922423 1.2401112 0.089110196
-0.054015823 0.13641615 1.2369001 0.089110196
-0.045346025 0.135028 1.2356668 0.089110196
-0.037561994 0.13598093 1.2372222 0.089110196
-0.030197049 0.13563576 1.23675 0.089110196
-0.022597389 0.13580345 1.2375456 0.089110196
-0.013688521 0.1352071 1.2362858 0.089110196
-0.046147257 0.13921842 1.233143 0.089110196
-0.03099094 0.13964963 1.23325 0.089110196
-0.02149749 0.13978402 1.2334001 0.089110196
-0.014457931 0.13929197 1.2332001 0.089110196
-0.053888991 0.14032155 1.2340001 0.089110196
-0.037432965 0.14020784 1.233 0.089110196
0.0027363535 0.11252764 1.2412502 0.089498356
0.0094970018 0.112528 1.2380002 0.089498356
0.017749237 0.11259697 1.2387501 0.089498356
-0.0022819841 0.11534486 1.243 0.089498356
8.1654005e-05 0.11534486 1.243 0.089498356
-0.0058157202 0.12100998 1.2404999 0.089498356
0.0024415164 0.12105825 1.2410001 0.089498356
0.0095175076 0.12101942 1.2405834 0.089498356
0.01776083 0.12093657 1.23975 0.089498356
0.025983594 0.12079841 1.2383333 0.089498356
0.034213591 0.12076126 1.2379377 0.089498356
-0.0058122836 0.12918758 1.2397501 0.089498356
0.0024402502 0.12923643 1.2402223 0.089498356
0.0095185228 0.12929411 1.2407779 0.089498356
0.017721234 0.12890071 1.2370001 0.089498356
0.02596595 0.1289472 1.2374445 0.089498356
0.03421526 0.12900555 1.238 0.089498356
0.042409524 0.12886591 1.2366667 0.089498356
-0.005795252 0.13585618 1.2360833 0.089498356
0.0024321699 0.13587104 1.2362221 0.089498356
0.0091505814 0.13523768 1.2365714 0.089498356
0.017697189 0.13341698 1.2352501 0.089498356
0.026388073 0.13435094 1.2352 0.089498356
0.034146644 0.13461818 1.2355 0.089498356
0.040004365 0.13338998 1.235 0.089498356
0.042465828 0.13690673 1.2320908 0.089498356
0.017656112 0.13778646 1.2323334 0.089498356
0.02552164 0.13845135 1.2322857 0.089498356
0.0099287927 0.13926923 1.2330002 0.089498356
0.034015838 0.13878062 1.2307501 0.089498356
-0.0057800999 0.14017943 1.2327501 0.089498356
0.0024236524 0.14009413 1.2320001 0.089498356
-0.046474326 0.14503767 1.2292501 0.081368841
-0.037999537 0.14437795 1.2286001 0.081368841
-0.030308064 0.14446367 1.2293334 0.081368841
-0.022126293 0.14445373 1.2292501 0.081368841
-0.013944981 0.1456423 1.2294166 0.081368841
-0.006100635 0.14519346 1.2298571 0.081368841
-0.038605951 0.14822234 1.2256 0.081368841
-0.044214383 0.14873715 1.2260001 0.081368841
-0.030218931 0.14869671 1.2256666 0.081368841
-0.022052711 0.14864615 1.22525 0.081368841
-0.046419781 0.15297994 1.2226667 0.081368841
-0.038301498 0.15306453 1.2233334 0.081368841
-0.030161401 0.15306486 1.2233334 0.081368841
-0.021993823 0.15288727 1.2219168 0.081368841
-0.014162823 0.15329662 1.222875 0.081368841
-0.011585463 0.15119168 1.2270001 0.081368841
-0.0057347971 0.15300055 1.2228333 0.081368841
-0.04687842 0.15780392 1.2195001 0.081368841
-0.037821714 0.1588778 1.2203335 0.081368841
-0.030090913 0.15851329 1.2205001 0.081368841
-0.02357566 0.15816489 1.2196001 0.081368841
-0.021153783 0.16141914 1.2161818 0.081368841
-0.013250787 0.15777168 1.2192501 0.081368841
-0.0073416689 0.15816489 1.2196001 0.081368841
-0.0049685389 0.16149275 1.2167274 0.081368841
-0.045890763 0.16173469 1.216375 0.081368841
-0.014087187 0.16173445 1.216375 0.081368841
-0.038591266 0.16281389 1.2167143 0.081368841
-0.029988503 0.16259691 1.2163335 0.081368841
-0.053368174 0.16784182 1.2124547 0.081368841
-0.046482328 0.16849779 1.2122002 0.081368841
-0.037994731 0.16683342 1.2135 0.081368841
-0.02991043 0.16678791 1.2131666 0.081368841
-0.021822041 0.16667911 1.212375 0.081368841
-0.013762695 0.16681065 1.2133332 0.081368841
-0.0053061224 0.16724069 1.2136668 0.081368841
-0.043637361 0.17095542 1.21 0.081368841
-0.037834384 0.17072549 1.2083751 0.081368841
-0.029827615 0.17093171 1.2098334 0.081368841
-0.021766152 0.17084949 1.20925 0.081368841
-0.0137126 0.17079045 1.2088335 0.081368841
-0.006162555 0.17103878 1.2094287 0.081368841
-0.045762658 0.17574319 1.2053751 0.081368841
-0.037702505 0.1758545 1.2041669 0.081368841
-0.029719092 0.17604049 1.2054446 0.081368841
-0.021468136 0.17696042 1.2054667 0.081368841
-0.013672427 0.17715858 1.2052501 0.081368841
-0.0059767603 0.17664042 1.2050716 0.081368841
-0.045586593 0.17935246 1.2007501 0.081368841
-0.037611894 0.17999834 1.2012501 0.081368841
-0.029617732 0.18001081 1.2013334 0.081368841
-0.025063455 0.18011071 1.202 0.081368841
-0.003346764 0.17996088 1.2010001 0.081368841
-0.037757475 0.1850694 1.1986003 0.081368841
-0.029283911 0.18436626 1.1969999 0.081368841
-0.022190992 0.1859483 1.1988462 0.081368841
-0.018989153 0.18336125 1.2033334 0.081368841
-0.014108862 0.18352388 1.2034 0.081368841
-0.0059444821 0.18473747 1.1981429 0.081368841
-0.013279662 0.18721703 1.1994286 0.081368841
-0.031699177 0.18794139 1.1936667 0.081368841
-0.040100113 0.19134049 1.1960001 0.081368841
-0.0033272575 0.18799387 1.194 0.083465606
0.0023488968 0.18799387 1.194 0.083465606
-0.037911341 0.19402368 1.1907778 0.083465606
-0.030726634 0.19344009 1.1912003 0.083465606
-0.027189858 0.19042368 1.1950001 0.083465606
-0.0226584 0.1905299 1.1956668 0.083465606
-0.021197643 0.1941651 1.1922309 0.083465606
-0.013555679 0.19042368 1.1950001 0.083465606
-0.0059034592 0.19252126 1.1899287 0.083465606
0.0023397089 0.19176185 1.1892223 0.083465606
-0.01351472 0.19436789 1.1913333 0.083465606
-0.0033012596 0.19550772 1.1845 0.083465606
0.00233117 0.19553523 1.1846666 0.083465606
-0.037705109 0.19861612 1.1862501 0.083465606
-0.0304066 0.19938934 1.1875001 0.083465606
-0.021382954 0.19834448 1.1880001 0.083465606
-0.01481657 0.19904622 1.1868 0.083465606
-0.0089430874 0.19801056 1.1860001 0.083465606
-0.0055379765 0.2005894 1.1812859 0.083465606
0.0023246121 0.20059814 1.1813334 0.083465606
-0.038453568 0.20233031 1.18325 0.083465606
-0.022417732 0.20200625 1.1830001 0.083465606
-0.014082883 0.20228526 1.182 0.083465606
-0.045465983 0.20270173 1.174 0.083465606
-0.030299202 0.20317554 1.1832501 0.083465606
-0.0021626528 0.20339504 1.1780001 0.083465606
-0.043093324 0.20648269 1.1743335 0.083465606
-0.037936449 0.20792806 1.1758001 0.083465606
-0.0369373 0.20818253 1.17975 0.083465606
-0.029828142 0.20821932 1.1825001 0.083465606
-0.022186704 0.20931655 1.1815455 0.083465606
-0.015189303 0.20810823 1.1806 0.083465606
-0.0072107352 0.20641379 1.17925 0.083465606
-0.0049514482 0.20949538 1.1755834 0.083465606
-0.032757517 0.21074168 1.1773334 0.083465606
-0.013348662 0.21099548 1.1766667 0.083465606
-0.028657669 0.21574 1.1806 0.083465606
-0.024646427 0.21419916 1.1820002 0.083465606
-0.035550691 0.21332008 1.171 0.083465606
-0.031931169 0.21615849 1.1743333 0.083465606
-0.022275046 0.21747239 1.1754 0.083465606
-0.014414455 0.21579051 1.1723332 0.083465606
-0.0052365367 0.21611579 1.1722306 0.083465606
-0.031070681 0.21981242 1.1700001 0.083465606
-0.028532118 0.2246424 1.1755 0.083465606
-0.01994656 0.21981242 1.1700001 0.083465606
-0.014377402 0.21971849 1.1695001 0.083465606
-0.0065976144 0.21981244 1.1700001 0.083465606
-0.031044126 0.22184746 1.169 0.083465606
-0.024451813 0.22477131 1.1726667 0.083465606
-0.021370625 0.22510046 1.1666667 0.083465606
-0.014329171 0.22451594 1.1655626 0.083465606
-0.0054717492 0.22374839 1.1673335 0.083465606
-0.02779223 0.23031428 1.1725 0.083465606
-0.0054373774 0.22783422 1.159875 0.083465606
-0.023027688 0.23216338 1.1650001 0.083465606
-0.017615709 0.22955491 1.1630001 0.083465606
-0.014052247 0.23284984 1.1587059 0.083465606
-0.027673712 0.23488075 1.1675 0.083465606
-0.027595015 0.24085325 1.1641667 0.083465606
0.0024186103 0.14445168 1.2292222 0.08210665
0.0094334912 0.14450306 1.2296667 0.08210665
0.017594988 0.14315569 1.2281251 0.08210665
0.025770113 0.1431606 1.2281668 0.08210665
0.033769228 0.14295782 1.2278574 0.08210665
0.042112738 0.14314102 1.2280002 0.08210665
0.03397489 0.14700852 1.2245556 0.08210665
0.017551046 0.14745015 1.225 0.08210665
0.025689362 0.14736991 1.2243334 0.08210665
0.042015567 0.1474707 1.2251667 0.08210665
-0.0034164302 0.14873715 1.2260001 0.08210665
0.0024118272 0.14869671 1.2256668 0.08210665
0.0094000353 0.14865626 1.2253333 0.08210665
0.0024052549 0.15291044 1.2221112 0.08210665
0.0098371617 0.15310472 1.2218001 0.08210665
0.017817987 0.15262996 1.2215456 0.08210665
0.025622169 0.15278679 1.2211112 0.08210665
0.033747952 0.15277241 1.2210001 0.08210665
0.041918404 0.15294035 1.2223334 0.08210665
7.9946032e-05 0.1569021 1.217 0.08210665
0.0035590129 0.15722442 1.2195001 0.08210665
0.0081930794 0.15715994 1.2190001 0.08210665
0.010566198 0.16093673 1.2152308 0.08210665
0.013965132 0.1569021 1.217 0.08210665
0.018564086 0.16011536 1.2150834 0.08210665
0.024419084 0.15715994 1.2190001 0.08210665
0.025717562 0.1607457 1.2146001 0.08210665
0.033249799 0.16060044 1.215 0.08210665
0.036009088 0.15715994 1.2190001 0.08210665
0.04180409 0.15715994 1.2190001 0.08210665
0.0023923877 0.16139565 1.2160001 0.08210665
0.041663315 0.16124755 1.214889 0.08210665
0.0023843402 0.16669624 1.2125 0.08210665
0.010449524 0.1666106 1.2118751 0.08210665
0.018511407 0.16543075 1.2116667 0.08210665
0.025424846 0.16543075 1.2116667 0.08210665
0.033476178 0.16537386 1.2112501 0.08210665
0.041587532 0.16556728 1.2126667 0.08210665
0.018455392 0.16952306 1.2079999 0.08210665
0.026487716 0.16947579 1.2076666 0.08210665
0.034510829 0.1693985 1.2071111 0.08210665
0.042232201 0.16961624 1.207182 0.08210665
0.049935758 0.17009906 1.2074286 0.08210665
0.0023777718 0.17081384 1.2090001 0.08210665
0.010417911 0.17070794 1.2082502 0.08210665
0.0023714108 0.17604068 1.2054446 0.08210665
0.010382707 0.17586668 1.2042501 0.08210665
0.017476443 0.17488568 1.2038001 0.08210665
0.026645044 0.17405713 1.2044001 0.08210665
0.035066947 0.17546156 1.2037144 0.08210665
0.042099535 0.17552987 1.2033638 0.08210665
0.018997218 0.17795917 1.2007142 0.08210665
0.026236914 0.1778695 1.2009091 0.08210665
0.033415496 0.17855951 1.2007999 0.08210665
0.0023646129 0.18006076 1.2016667 0.08210665
0.010359233 0.1800358 1.2015001 0.08210665
0.0023574142 0.18409996 1.1982223 0.08210665
0.010326977 0.18402672 1.19775 0.08210665
0.018512145 0.18433607 1.1968 0.08210665
0.025915619 0.18446325 1.1963571 0.08210665
0.010288334 0.18787578 1.1932501 0.08210665
0.017100211 0.18791515 1.1935 0.08210665
0.010249052 0.19280411 1.1886876 0.088836178
0.018172739 0.19292255 1.1894168 0.088836178
0.010193233 0.20072156 1.1820626 0.088836178
0.017846439 0.20017178 1.1828001 0.088836178
0.025936825 0.19967167 1.1825001 0.088836178
0.033195037 0.20242691 1.1835715 0.088836178
0.019117698 0.20339504 1.1780001 0.088836178
0.025822071 0.20326555 1.17725 0.088836178
0.010169533 0.20589693 1.1795 0.088836178
0.017949296 0.20843019 1.1748335 0.088836178
0.025800016 0.20868315 1.17625 0.088836178
0.033750996 0.20719373 1.1805001 0.088836178
0.033650611 0.21105589 1.177 0.088836178
0.018156396 0.21601921 1.1722224 0.088836178
0.025711128 0.21575983 1.1721666 0.088836178
0.034090634 0.21789846 1.1744616 0.088836178
0.035948467 0.21477744 1.179 0.088836178
0.038190402 0.21477744 1.179 0.088836178
0.015797772 0.21963327 1.1810001 0.088836178
0.015791083 0.22402704 1.1805 0.088836178
0.020083098 0.21962453 1.169 0.088836178
0.025635157 0.21957757 1.16875 0.088836178
0.017053153 0.22518253 1.1748002 0.088836178
0.020044442 0.22474584 1.1667501 0.088836178
0.025801536 0.22441843 1.1662 0.088836178
0.034477782 0.22482981 1.1671875 0.088836178
0.016664723 0.2324477 1.1744287 0.088836178
0.022172451 0.22714791 1.1620001 0.088836178
0.019284224 0.23230165 1.1656667 0.088836178
0.025434185 0.23330665 1.1596876 0.088836178
0.027732708 0.2296536 1.1635001 0.088836178
0.032723859 0.23030517 1.164 0.088836178
0.033371359 0.23334742 1.1586667 0.088836178
0.01996284 0.23488158 1.1620001 0.088836178
0.015684072 0.23923311 1.1725001 0.088836178
0.0023193881 0.20580965 1.179 0.10715207
0.0023152132 0.20985667 1.1765555 0.10715207
0.010139841 0.20978691 1.1761667 0.10715207
0.0016759866 0.21633258 1.177 0.10715207
0.010523873 0.21447383 1.1773334 0.10715207
0.010942205 0.21794873 1.182 0.10715207
0.0045651952 0.21832633 1.1800001 0.10715207
0.0079741674 0.2195285 1.1865001 0.10715207
0.0083848834 0.22300155 1.1910001 0.10715207
0.0013556437 0.22476995 1.176 0.10715207
0.0036707676 0.22457393 1.1810001 0.10715207
0.012832147 0.22312926 1.1836667 0.10715207
7.6792865e-05 0.22851625 1.169 0.10715207
0.003419931 0.23021607 1.1720001 0.10715207
0.0022937846 0.23375069 1.1655556 0.10715207
0.050645508 -0.099634893 1.0037501 0.089498356
0.058295503 -0.099659711 1.0040001 0.089498356
0.066032097 -0.099808596 1.0055001 0.089498356
0.072612971 -0.099659704 1.0040001 0.089498356
0.076280311 -0.099461183 1.0020001 0.089498356
0.078185678 -0.099461183 1.0020001 0.089498356
0.082106151 -0.099593528 1.0033334 0.089498356
0.05063118 -0.095758677 1.0081875 0.089498356
0.058499672 -0.097132437 1.0074999 0.089498356
0.066252656 -0.097265355 1.0088751 0.089498356
0.073805787 -0.097108319 1.0072501 0.089498356
0.08145836 -0.097096153 1.007125 0.089498356
0.058425371 -0.092662163 1.0126154 0.089498356
0.066545084 -0.092875935 1.0133333 0.089498356
0.074215613 -0.092829637 1.0128334 0.089498356
0.08198861 -0.092905849 1.0136666 0.089498356
0.057350796 -0.088609859 1.016875 0.089498356
0.063947856 -0.089434616 1.018 0.089498356
0.065261751 -0.087315932 1.0220909 0.089498356
0.074288815 -0.086980291 1.0222728 0.089498356
0.075562589 -0.089434616 1.018 0.089498356
0.081369944 -0.089434616 1.018 0.089498356
0.082579777 -0.086094275 1.0227143 0.089498356
0.09051653 -0.086947121 1.0229375 0.089498356
0.057739548 -0.085277759 1.0223333 0.089498356
0.067459226 -0.085363559 1.0272501 0.089498356
0.071871325 -0.084895872 1.0275 0.089498356
0.057435166 -0.080124281 1.0226668 0.089498356
0.064889692 -0.079815231 1.0237001 0.089498356
0.067508228 -0.082493901 1.028 0.089498356
0.07335408 -0.082473844 1.02775 0.089498356
0.082200542 -0.080254361 1.0243334 0.089498356
0.08599513 -0.082413658 1.0270001 0.089498356
0.090758421 -0.079408728 1.0234667 0.089498356
0.098353602 -0.079215795 1.0235001 0.089498356
0.074001931 -0.079191715 1.0232002 0.089498356
0.058863282 -0.075567245 1.0137501 0.089498356
0.066670701 -0.075679056 1.0152501 0.089498356
0.074374855 -0.075660422 1.0150001 0.089498356
0.082156561 -0.075716332 1.0157501 0.089498356
0.087006032 -0.075734966 1.016 0.089498356
0.058795054 -0.070746914 1.0078572 0.089498356
0.066206858 -0.07036043 1.0081875 0.089498356
0.07378342 -0.070273906 1.0069376 0.089498356
0.081192389 -0.069882676 1.0072143 0.089498356
0.084108055 -0.073802978 1.016 0.089498356
0.089835972 -0.073748499 1.0152501 0.089498356
0.097392656 -0.07362137 1.0135 0.089498356
0.090025857 -0.069294207 1.0066 0.089498356
0.056779467 -0.067672327 1.011 0.089498356
0.08997561 -0.099858232 1.006 0.43364957
0.098409861 -0.099684522 1.00425 0.43364957
0.10578726 -0.099436373 1.0017501 0.43364957
0.11408695 -0.099203102 0.99940002 0.43364957
0.12253314 -0.099113762 0.99850005 0.43364957
0.13019216 -0.099163391 0.99900007 0.43364957
0.089718185 -0.097276419 1.0078889 0.43364957
0.098764315 -0.095505483 1.0072001 0.43364957
0.10606096 -0.0955704 1.0069286 0.43364957
0.11396003 -0.095132805 1.0066429 0.43364957
0.11629292 -0.097555809 1.0020001 0.43364957
0.12196068 -0.097516872 1.0016 0.43364957
0.13058315 -0.097555809 1.0020001 0.43364957
0.12158936 -0.094155751 1.0064167 0.43364957
0.1300258 -0.09403009 1.0050668 0.43364957
0.089748599 -0.092958368 1.0142499 0.43364957
0.095463999 -0.092890896 1.0135001 0.43364957
0.10873961 -0.092710435 1.0115001 0.43364957
0.11157005 -0.092664607 1.011 0.43364957
0.099126808 -0.089475878 1.0148335 0.43364957
0.10584112 -0.089218877 1.0139999 0.43364957
0.11441219 -0.08892519 1.013923 0.43364957
0.12249643 -0.087625921 1.0139167 0.43364957
0.12298314 -0.090652376 1.01 0.43364957
0.12954414 -0.089580357 1.00875 0.43364957
0.097572006 -0.085925721 1.0204169 0.43364957
0.13025151 -0.085244507 1.0142502 0.43364957
0.10581274 -0.08479166 1.020375 0.43364957
0.11354683 -0.084770888 1.020125 0.43364957
0.12066486 -0.084451132 1.0201666 0.43364957
0.12601672 -0.083709374 1.0190001 0.43364957
0.10585327 -0.0798444 1.0229231 0.43364957
0.11373615 -0.080057234 1.0218334 0.43364957
0.12172484 -0.079225115 1.0236251 0.43364957
0.10653517 -0.075884052 1.018 0.43364957
0.10953911 -0.075287722 1.01 0.43364957
0.11412865 -0.075784661 1.0166668 0.43364957
0.12963124 -0.079293884 1.0223531 0.087832622
0.13749631 -0.079592548 1.0230715 0.087832622
0.1460517 -0.08019311 1.0236154 0.087832622
0.15419856 -0.077160738 1.0299001 0.087832622
0.13969991 -0.076554932 1.0270001 0.087832622
0.14555861 -0.076554932 1.0270001 0.087832622
0.1305701 -0.073644966 1.0205001 0.087832622
0.1391318 -0.072502449 1.0300001 0.087832622
0.14521569 -0.073455907 1.0315001 0.087832622
0.15208125 -0.07492891 1.0315001 0.087832622
0.13522974 -0.070115924 1.0242001 0.087832622
0.14733313 -0.069905095 1.0363636 0.087832622
0.13707876 -0.063545838 1.0220001 0.087832622
0.14059581 -0.063463606 1.0311667 0.087832622
0.1417722 -0.067310669 1.0350001 0.087832622
0.1457631 -0.063613601 1.038875 0.087832622
0.13543881 -0.061305314 1.0170001 0.087832622
0.14782631 -0.060889274 1.0430001 0.087832622
0.13557197 -0.058461905 1.018 0.087832622
0.13626488 -0.054477252 1.0231999 0.087832622
0.14017792 -0.05428417 1.0304999 0.087832622
0.144214 -0.054497689 1.0383999 0.087832622
0.1476856 -0.055187106 1.0450001 0.087832622
0.14190917 -0.053585544 1.036 0.087832622
0.13668713 -0.047703557 1.0305715 0.087832622
0.14238858 -0.047839392 1.0395 0.087832622
0.13935065 -0.045397591 1.0365001 0.087832622
0.0579594 -0.064793408 1.0148751 0.089446522
0.061524741 -0.06568481 1.01 0.089446522
0.065344952 -0.065663129 1.0096667 0.089446522
0.066159219 -0.063475445 1.0156666 0.089446522
0.074358918 -0.064060777 1.01475 0.089446522
0.075777754 -0.065554738 1.0080001 0.089446522
0.081591338 -0.06560351 1.00875 0.089446522
0.090760745 -0.065213598 1.0076667 0.089446522
0.081477843 -0.063455664 1.0153333 0.089446522
0.090092681 -0.062460434 1.0138001 0.089446522
0.057368927 -0.061575867 1.0215001 0.089446522
0.066669755 -0.060849193 1.0201666 0.089446522
0.074119128 -0.061182033 1.0203334 0.089446522
0.083159447 -0.061172146 1.0201666 0.089446522
0.088361189 -0.060546022 1.0205001 0.089446522
0.057209995 -0.057532385 1.0244445 0.089446522
0.065668002 -0.057229768 1.0237 0.089446522
0.073766805 -0.056984685 1.0237858 0.089446522
0.082718708 -0.056463089 1.0244286 0.089446522
0.090495363 -0.055808861 1.0226876 0.089446522
0.058066893 -0.053052578 1.029182 0.089446522
0.065219201 -0.052825063 1.0288999 0.089446522
0.073408797 -0.052218545 1.0285001 0.089446522
0.081281535 -0.052250165 1.0291251 0.089446522
0.089293182 -0.051378865 1.03125 0.089446522
0.098091967 -0.051366407 1.0310001 0.089446522
0.050169662 -0.046549369 1.0373333 0.089446522
0.053155657 -0.049549654 1.034 0.089446522
0.058029301 -0.049513716 1.03325 0.089446522
0.066548929 -0.048862305 1.0333333 0.089446522
0.073926315 -0.04910849 1.033 0.089446522
0.082160436 -0.049098909 1.0328 0.089446522
0.089292705 -0.049417876 1.03125 0.089446522
0.098666489 -0.048464954 1.0318751 0.089446522
0.058273781 -0.045771975 1.0375835 0.089446522
0.066202044 -0.045795877 1.038125 0.089446522
0.074036114 -0.045634162 1.0385455 0.089446522
0.081697278 -0.045603111 1.0378182 0.089446522
0.089826979 -0.045765262 1.0374166 0.089446522
0.096858509 -0.04528559 1.0364445 0.089446522
0.064526618 -0.044030938 1.0430001 0.089446522
0.08328829 -0.042007294 1.0420001 0.089446522
0.090945825 -0.040443778 1.0414443 0.089446522
0.1051954 -0.073463984 1.0113335 0.089498356
0.10620064 -0.071780212 1.0056669 0.089498356
0.11346861 -0.069711797 1.0047144 0.089498356
0.11643427 -0.073476091 1.0115001 0.089498356
0.12325504 -0.073374517 1.0154002 0.089498356
0.097912468 -0.069375172 1.0050001 0.089498356
0.1213128 -0.06909842 1.0062728 0.089498356
0.12929945 -0.070146263 1.0143334 0.089498356
0.10105003 -0.068022586 1.0020001 0.089498356
0.10632225 -0.068552896 1.0014 0.089498356
0.10470378 -0.066493154 1.0005 0.089498356
0.12753248 -0.067471519 1.0080001 0.089498356
0.098656997 -0.064515769 1.00675 0.089498356
0.10660873 -0.06350176 1.0059001 0.089498356
0.11395954 -0.064507402 1.0066251 0.089498356
0.1218219 -0.063694313 1.0061818 0.089498356
0.12785313 -0.063591771 1.0072858 0.089498356
0.13135678 -0.062283032 1.0136666 0.089498356
0.097403362 -0.061100319 1.0136251 0.089498356
0.10447646 -0.060781747 1.0136667 0.089498356
0.11429457 -0.061035864 1.0143334 0.089498356
0.12183215 -0.060497414 1.0132 0.089498356
0.097959481 -0.058040284 1.0174 0.089498356
0.10554206 -0.058447547 1.01775 0.089498356
0.11363306 -0.058461905 1.018 0.089498356
0.11377583 -0.054150946 1.0227059 0.089498356
0.12191321 -0.057442326 1.0171 0.089498356
0.13050921 -0.057394214 1.0162501 0.089498356
0.098162897 -0.054649755 1.0224545 0.089498356
0.10603488 -0.054828774 1.0225 0.089498356
0.12163895 -0.052905653 1.0229166 0.089498356
0.12978032 -0.053283639 1.0227001 0.089498356
0.10675936 -0.051291674 1.0295 0.089498356
0.1279825 -0.051167123 1.0270001 0.089498356
0.10616734 -0.047824692 1.0315455 0.089498356
0.11417782 -0.047473684 1.0316668 0.089498356
0.1229004 -0.048085913 1.0307778 0.089498356
0.13070604 -0.047154412 1.0313078 0.089498356
0.050594803 -0.039899543 1.0467693 0.08783178
0.058718313 -0.040158246 1.0455002 0.08783178
0.066823237 -0.040251389 1.0479168 0.08783178
0.074735247 -0.040219065 1.0470833 0.08783178
0.082650773 -0.03897281 1.0476365 0.08783178
0.089427762 -0.037275705 1.0442858 0.08783178
0.051081285 -0.036409087 1.052 0.08783178
0.057066433 -0.036400437 1.0517501 0.08783178
0.065053441 -0.036391784 1.0515001 0.08783178
0.073015705 -0.03637448 1.051 0.08783178
0.080702156 -0.036386017 1.0513334 0.08783178
0.047942564 -0.034310516 1.049 0.08783178
0.049547072 -0.031154715 1.0548333 0.08783178
0.056969143 -0.032679532 1.0550002 0.08783178
0.065520555 -0.032197066 1.055308 0.08783178
0.073061831 -0.032187585 1.0550002 0.08783178
0.082472749 -0.03275976 1.0526667 0.08783178
0.090817489 -0.033308819 1.048875 0.08783178
0.058065604 -0.028999072 1.059 0.08783178
0.080644682 -0.0296122 1.0593333 0.08783178
0.089300416 -0.02947598 1.0545 0.08783178
0.052427098 -0.028596321 1.059 0.08783178
0.064509608 -0.028596321 1.059 0.08783178
0.074578367 -0.028596321 1.059 0.08783178
0.049575947 -0.025661683 1.0626251 0.08783178
0.057652336 -0.026670417 1.0625001 0.08783178
0.06621477 -0.025822481 1.0632857 0.08783178
0.073445484 -0.025063783 1.0630001 0.08783178
0.082355179 -0.025812538 1.0628573 0.08783178
0.089532584 -0.026538635 1.0572501 0.08783178
0.057991549 -0.022759849 1.06875 0.08783178
0.065767586 -0.022079282 1.0685556 0.08783178
0.081980027 -0.022068504 1.0680001 0.08783178
0.0899354 -0.022616403 1.0620002 0.08783178
0.098068409 -0.022628829 1.0625834 0.08783178
0.049843021 -0.021737853 1.0683751 0.08783178
0.07487528 -0.0213925 1.0680001 0.08783178
0.050070576 -0.018776834 1.0732501 0.088756651
0.058275376 -0.017768815 1.074 0.088756651
0.0657686 -0.018364005 1.0730001 0.088756651
0.075116619 -0.018353507 1.0724 0.088756651
0.082759984 -0.017878016 1.0718572 0.088756651
0.090528347 -0.017684191 1.069 0.088756651
0.050328281 -0.014767736 1.0787501 0.088756651
0.066914193 -0.014559459 1.0770911 0.088756651
0.074491851 -0.014548948 1.0762727 0.088756651
0.082415804 -0.014218591 1.075875 0.088756651
0.058565721 -0.013751903 1.079375 0.088756651
0.089548312 -0.013568094 1.0764287 0.088756651
0.050397228 -0.008084855 1.0865715 0.088756651
0.05811727 -0.0070643597 1.085889 0.088756651
0.060127236 -0.009872986 1.0816 0.088756651
0.066814728 -0.00965284 1.08 0.088756651
0.074011177 -0.0086256666 1.080111 0.088756651
0.081380971 -0.0078009875 1.0798 0.088756651
0.089414127 -0.0086257085 1.0800833 0.088756651
0.065520249 -0.0054238024 1.0852857 0.088756651
0.072667837 -0.0049502142 1.0846001 0.088756651
0.051936697 -0.0045651142 1.0910001 0.088756651
0.055073351 -0.0045672064 1.0915 0.088756651
0.078400239 -0.0045358241 1.0840001 0.088756651
0.089738764 -0.0045358241 1.0840001 0.088756651
0.098005809 -0.0045368699 1.0842501 0.088756651
0.057110321 0.00083606591 1.0947334 0.088756651
0.060179889 -0.0024882227 1.09 0.088756651
0.065332614 -0.0024870813 1.0895001 0.088756651
0.074600957 -0.0013008836 1.0887144 0.088756651
0.081415251 -0.00059889274 1.0867273 0.088756651
0.090111285 -0.0014489203 1.0885001 0.088756651
0.09841232 -0.0014490156 1.0887501 0.088756651
0.06568177 0.0016684695 1.0953335 0.088756651
0.073173359 0.002130297 1.0948889 0.088756651
0.082881361 0.0033293492 1.0942001 0.088756651
0.090554468 0.0027041906 1.0938752 0.088756651
0.098414503 0.0025554884 1.0937144 0.088756651
0.067929268 0.0058451942 1.098 0.088756651
0.095698491 0.007097946 1.098 0.088756651
0.057751145 0.0090235388 1.103 0.087295912
0.065817215 0.0094679724 1.1025714 0.087295912
0.074401796 0.0062627778 1.098 0.087295912
0.082424231 0.0084484648 1.1017692 0.087295912
0.089824758 0.006887062 1.0976667 0.087295912
0.098090962 0.0098613678 1.101 0.087295912
0.074440539 0.010261456 1.1030909 0.087295912
0.089180931 0.011113146 1.102625 0.087295912
0.082168736 0.012208207 1.107 0.087295912
0.05852861 0.015777357 1.1111112 0.087295912
0.066612013 0.016478615 1.1108334 0.087295912
0.074021883 0.017890209 1.1111112 0.087295912
0.07578513 0.014300312 1.1060001 0.087295912
0.08154282 0.017732153 1.1099335 0.087295912
0.089414053 0.014293847 1.1055 0.087295912
0.09769097 0.014274452 1.1040001 0.087295912
0.089517072 0.018186918 1.1120002 0.087295912
0.098509736 0.018384561 1.1100001 0.087295912
0.04953919 0.0199084 1.1171429 0.087295912
0.058038078 0.019908398 1.1171428 0.087295912
0.065839358 0.020789841 1.1156667 0.087295912
0.071101241 0.020777417 1.115 0.087295912
0.092345491 0.020786736 1.1155 0.087295912
0.095483981 0.020777417 1.115 0.087295912
0.052299015 0.023020882 1.1210001 0.087295912
0.059355158 0.023455808 1.1214001 0.087295912
0.066140972 0.025149452 1.1207778 0.087295912
0.073494934 0.025113462 1.1191667 0.087295912
0.080569983 0.022877129 1.1140001 0.087295912
0.082291596 0.025801186 1.1182222 0.087295912
0.090474874 0.025101483 1.1185833 0.087295912
0.09834303 0.024890084 1.1186 0.087295912
0.082142085 0.02941585 1.1210001 0.087295912
0.090710066 0.029428968 1.1215001 0.087295912
0.098216981 0.029442089 1.1220001 0.087295912
0.090047337 0.033848394 1.1265557 0.087295912
0.10551494 -0.044412572 1.0365001 0.088815048
0.121341 -0.044761706 1.0370001 0.088815048
0.11348379 -0.043788198 1.03725 0.088815048
0.1290722 -0.043724876 1.03575 0.088815048
0.09845151 -0.041106276 1.0407143 0.088815048
0.10526198 -0.041286346 1.0405 0.088815048
0.11433222 -0.041514255 1.0396 0.088815048
0.12218194 -0.040373769 1.0407999 0.088815048
0.12961219 -0.039950017 1.0400835 0.088815048
0.13584282 -0.040599305 1.0398334 0.088815048
0.098028056 -0.037462123 1.0442224 0.088815048
0.1067265 -0.037736565 1.0445001 0.088815048
0.11403825 -0.037964255 1.0448183 0.088815048
0.121616 -0.036827933 1.0450001 0.088815048
0.13022563 -0.036166821 1.0450001 0.088815048
0.098726258 -0.033285238 1.0481251 0.088815048
0.10677537 -0.033308581 1.0488751 0.088815048
0.11471777 -0.03348285 1.0498573 0.088815048
0.12286216 -0.033677679 1.0500001 0.088815048
0.13142221 -0.033937357 1.0498002 0.088815048
0.13683863 -0.034343228 1.0500001 0.088815048
0.13757318 -0.030814232 1.0535455 0.088815048
0.11372633 -0.029816572 1.0547777 0.088815048
0.12175915 -0.030070145 1.0543 0.088815048
0.12959376 -0.030274985 1.0538181 0.088815048
0.09776666 -0.029554239 1.0533334 0.088815048
0.10570764 -0.029315053 1.0538571 0.088815048
0.097526707 -0.026526084 1.0567501 0.088815048
0.10549372 -0.026507257 1.0560001 0.088815048
0.11172716 -0.02655746 1.0580001 0.088815048
0.11514777 -0.024917822 1.0617144 0.088815048
0.12198617 -0.022922518 1.0617694 0.088815048
0.122675 -0.026532359 1.057 0.088815048
0.12961978 -0.026513532 1.05625 0.088815048
0.13664888 -0.026010567 1.0562501 0.088815048
0.13805805 -0.022997502 1.0609 0.088815048
0.10622519 -0.022644645 1.0633335 0.088815048
0.13018134 -0.022592193 1.0608335 0.088815048
0.11419538 -0.02155135 1.0662857 0.088815048
0.1367683 -0.0186325 1.0650001 0.088815048
0.14786769 -0.024015654 1.0795 0.089498356
0.14868957 -0.02002085 1.0855 0.089498356
0.13710566 -0.015473356 1.0708001 0.089498356
0.1442464 -0.018175373 1.0780001 0.089498356
0.14566089 -0.014868272 1.0860001 0.089498356
0.14847413 -0.014945956 1.0915 0.089498356
0.14069994 -0.013381145 1.077 0.089498356
0.13720512 -0.0088678235 1.0783751 0.089498356
0.14260654 -0.0086732544 1.0863334 0.089498356
0.14572142 -0.0083238287 1.0942 0.089498356
0.15012783 -0.010838386 1.0960001 0.089498356
0.15316617 -0.0088090403 1.1028572 0.089498356
0.14816193 -0.0061747041 1.1007501 0.089498356
0.1386297 -0.0050485805 1.0835 0.089498356
0.13705246 -0.00024003025 1.0873334 0.089498356
0.14387551 -0.0014589104 1.096 0.089498356
0.14663106 0.00097946124 1.1036667 0.089498356
0.14896297 0.00028120223 1.1079999 0.089498356
0.13984734 0.0032205619 1.0930001 0.089498356
0.1373086 0.0073235282 1.0958573 0.089498356
0.14356223 0.0075508179 1.1032002 0.089498356
0.098443039 -0.017366188 1.0703334 0.089294277
0.10603323 -0.016707359 1.0716364 0.089294277
0.11387461 -0.016712492 1.0719168 0.089294277
0.12192997 -0.015872367 1.0704668 0.089294277
0.12947443 -0.015459424 1.0700001 0.089294277
0.13373056 -0.0186325 1.0650001 0.089294277
0.097391941 -0.013561086 1.0758573 0.089294277
0.10544369 -0.01268669 1.0760001 0.089294277
0.11360136 -0.012683744 1.0757501 0.089294277
0.11863284 -0.012674901 1.075 0.089294277
0.097635515 -0.0086254235 1.0801666 0.089294277
0.10582726 -0.0086234268 1.0799166 0.089294277
0.11398032 -0.0086184507 1.0793334 0.089294277
0.12218887 -0.0086179757 1.0793333 0.089294277
0.13024776 -0.0086079901 1.0780834 0.089294277
0.10625049 -0.0045368699 1.0842501 0.089294277
0.11439434 -0.0045326855 1.08325 0.089294277
0.12283118 -0.0045400085 1.085 0.089294277
0.13093221 -0.0045347782 1.0837501 0.089294277
0.10706197 -0.0008273173 1.0883 0.089294277
0.11446884 -0.00059972232 1.0866363 0.089294277
0.12140263 -0.00067208294 1.0883751 0.089294277
0.12993421 -0.00024056992 1.0883334 0.089294277
0.10503026 0.0030486286 1.0930001 0.089294277
0.12231446 0.003047171 1.0926666 0.089294277
0.12826581 0.0032172352 1.09175 0.089294277
0.11329202 0.0037384538 1.0925 0.089294277
0.10525827 0.010269602 1.1019 0.088689774
0.10650649 0.0068861754 1.0975001 0.088689774
0.1137211 0.0068808841 1.0966251 0.088689774
0.12210248 0.0068831174 1.097 0.088689774
0.13020879 0.0079134982 1.095 0.088689774
0.11410998 0.011089997 1.1003751 0.088689774
0.12260337 0.011101453 1.1015 0.088689774
0.13843937 0.011111293 1.1025 0.088689774
0.13086247 0.012136524 1.1005 0.088689774
0.14110947 0.012208207 1.107 0.088689774
0.10613535 0.014280916 1.1045001 0.088689774
0.11447174 0.015323926 1.1038749 0.088689774
0.12218242 0.014975179 1.104 0.088689774
0.12961216 0.015473851 1.1038572 0.088689774
0.13611007 0.015115325 1.104 0.088689774
0.1386745 0.018353153 1.1094 0.088689774
0.10641143 0.018390819 1.1103637 0.088689774
0.12176657 0.019274637 1.1097778 0.088689774
0.11362328 0.019811317 1.1117142 0.088689774
0.12977892 0.019613521 1.109125 0.088689774
0.10493086 0.022877129 1.1140001 0.088689774
0.1057865 0.025827803 1.1193334 0.088689774
0.11409871 0.024364362 1.1173333 0.088689774
0.12182702 0.025766874 1.1167779 0.088689774
0.12289932 0.022870282 1.1136667 0.088689774
0.13079804 0.02326794 1.1124001 0.088689774
0.13716905 0.023695718 1.1126001 0.088689774
0.13014729 0.026257297 1.1161429 0.088689774
0.13882264 0.026686247 1.11825 0.088689774
0.11328629 0.027340984 1.1233335 0.088689774
0.12314932 0.029810691 1.1198 0.088689774
0.12993008 0.030442314 1.1195002 0.088689774
0.13700433 0.030307194 1.1201431 0.088689774
0.13792875 -0.099262655 1 0.084682763
0.14553498 -0.099262655 1 0.084682763
0.1542145 -0.099342063 1.0008 0.084682763
0.16256672 -0.099213019 0.99950004 0.084682763
0.17008498 -0.099163391 0.99900007 0.084682763
0.17604837 -0.099312291 1.0005 0.084682763
0.13725191 -0.097555809 1.0020001 0.084682763
0.13845941 -0.094700709 1.0043848 0.084682763
0.14587216 -0.095625482 1.0048463 0.084682763
0.15406005 -0.096031338 1.006 0.084682763
0.16180989 -0.095661916 1.0052308 0.084682763
0.16992524 -0.096097879 1.0052857 0.084682763
0.14627165 -0.092725717 1.0116668 0.084682763
0.15389422 -0.092682935 1.0112002 0.084682763
0.16155444 -0.092664607 1.011 0.084682763
0.17024696 -0.092687517 1.0112501 0.084682763
0.13721789 -0.089580357 1.0087501 0.084682763
0.14218889 -0.090652376 1.01 0.084682763
0.14575224 -0.088662766 1.01475 0.084682763
0.15376882 -0.088940993 1.0140001 0.084682763
0.16165656 -0.088570438 1.0140666 0.084682763
0.17025313 -0.08831197 1.0148749 0.084682763
0.13807979 -0.08531487 1.0150834 0.084682763
0.14698474 -0.084657721 1.0204287 0.084682763
0.15408242 -0.084598497 1.0197142 0.084682763
0.16272165 -0.084464818 1.0203333 0.084682763
0.16961993 -0.084195495 1.0202 0.084682763
0.15440811 -0.081314109 1.0237143 0.084682763
0.16220525 -0.081134029 1.0245556 0.084682763
0.17078947 -0.080881804 1.0241112 0.084682763
0.17848563 -0.078113034 1.0282501 0.084682763
0.16120175 -0.077371769 1.0292221 0.084682763
0.16930088 -0.077672586 1.028875 0.084682763
0.18039268 -0.099610075 1.0035 0.088736676
0.18616252 -0.099634893 1.0037501 0.088736676
0.19370216 -0.099585257 1.00325 0.088736676
0.19842133 -0.09956044 1.003 0.088736676
0.17837913 -0.096077316 1.0065 0.088736676
0.18633163 -0.095310517 1.0072501 0.088736676
0.19388892 -0.095377073 1.0072001 0.088736676
0.19934452 -0.096188843 1.0076667 0.088736676
0.17839281 -0.092113532 1.012 0.088736676
0.18270168 -0.092664607 1.011 0.088736676
0.19514944 -0.091424704 1.01325 0.088736676
0.19847333 -0.091883823 1.013 0.088736676
0.1777916 -0.088667676 1.0158999 0.088736676
0.18591923 -0.089006141 1.0148462 0.088736676
0.19397447 -0.088642091 1.0163333 0.088736676
0.19925705 -0.088378862 1.017 0.088736676
0.17805569 -0.084669456 1.0205715 0.088736676
0.18581492 -0.08485911 1.019889 0.088736676
0.19402653 -0.084760852 1.02 0.088736676
0.19897203 -0.084802404 1.0205001 0.088736676
0.17728744 -0.081070341 1.024143 0.088736676
0.18682174 -0.080674149 1.0242223 0.088736676
0.19348924 -0.080873094 1.024 0.088736676
0.19877835 -0.08123754 1.0245 0.088736676
0.18494304 -0.077731632 1.0282224 0.088736676
0.19499066 -0.077466711 1.0280001 0.088736676
0.19965145 -0.077681422 1.029 0.088736676
0.16339888 -0.074455515 1.0317501 0.089292906
0.16991891 -0.074027523 1.0326251 0.089292906
0.15432353 -0.070374258 1.0366874 0.089292906
0.1618311 -0.070282519 1.0374286 0.089292906
0.16987719 -0.069501236 1.0383847 0.089292906
0.15380073 -0.064827062 1.0402857 0.089292906
0.16071431 -0.065050341 1.0408334 0.089292906
0.16948028 -0.065784477 1.0420001 0.089292906
0.15383892 -0.061374664 1.0456667 0.089292906
0.16249415 -0.06162994 1.0455 0.089292906
0.17028098 -0.062111724 1.0469168 0.089292906
0.15466163 -0.057249106 1.0490001 0.089292906
0.16267933 -0.05826132 1.04925 0.089292906
0.16778651 -0.058302961 1.0500001 0.089292906
0.16989908 -0.055273332 1.0532001 0.089292906
0.16154526 -0.054285608 1.0530909 0.089292906
0.1543221 -0.053487942 1.0535001 0.089292906
0.16198581 -0.050687764 1.0577501 0.089292906
0.16986963 -0.050639845 1.0567501 0.089292906
0.17610633 -0.050699744 1.0580001 0.089292906
0.17766583 -0.074965231 1.0320001 0.089055471
0.18610457 -0.074571982 1.0320001 0.089055471
0.19322526 -0.074910752 1.03125 0.089055471
0.19827111 -0.074965231 1.0320001 0.089055471
0.17806396 -0.07040666 1.0371876 0.089055471
0.18593198 -0.070028916 1.0370624 0.089055471
0.19437245 -0.07041993 1.0373751 0.089055471
0.19916768 -0.071359105 1.0366668 0.089055471
0.17727755 -0.065737121 1.04125 0.089055471
0.18515381 -0.06572134 1.041 0.089055471
0.1943288 -0.065370061 1.0406667 0.089055471
0.19891441 -0.064700007 1.0405 0.089055471
0.17807145 -0.062051769 1.0459167 0.089055471
0.18607433 -0.062066436 1.0461667 0.089055471
0.19384423 -0.061913446 1.0466365 0.089055471
0.19868648 -0.060976367 1.0445001 0.089055471
0.17735466 -0.054818001 1.053923 0.089055471
0.17976634 -0.058302958 1.0500001 0.089055471
0.18557934 -0.058247436 1.049 0.089055471
0.18569647 -0.05477792 1.053154 0.089055471
0.19397415 -0.056004975 1.055143 0.089055471
0.19973269 -0.058302961 1.0500001 0.089055471
0.19886597 -0.054618746 1.0560001 0.089055471
0.19641031 -0.052761424 1.059 0.089055471
0.14995944 -0.052362848 1.051 0.089498356
0.14561389 -0.04725017 1.0485001 0.089498356
0.15319933 -0.050239872 1.0568001 0.089498356
0.17882097 -0.048118282 1.0616363 0.089498356
0.14843018 -0.046513636 1.0543333 0.089498356
0.15484685 -0.046670333 1.062091 0.089498356
0.16241661 -0.04704988 1.0623639 0.089498356
0.17055176 -0.046806168 1.061 0.089498356
0.16903853 -0.043460872 1.0680001 0.089498356
0.13912492 -0.038200311 1.0463333 0.089498356
0.14327896 -0.041173078 1.046 0.089498356
0.14541209 -0.03949381 1.05425 0.089498356
0.14870134 -0.039579008 1.062 0.089498356
0.15389346 -0.038902029 1.07025 0.089498356
0.15528581 -0.043015145 1.067 0.089498356
0.16147269 -0.039627399 1.0695714 0.089498356
0.16347873 -0.043035299 1.0675001 0.089498356
0.14196528 -0.038373023 1.051 0.089498356
0.14243805 -0.033487335 1.0545001 0.089498356
0.1443938 -0.03169255 1.0615001 0.089498356
0.14860107 -0.034997381 1.0700001 0.089498356
0.15566961 -0.035215434 1.0766667 0.089498356
0.16277096 -0.035201807 1.0762501 0.089498356
0.14729157 -0.030938299 1.0703334 0.089498356
0.15119888 -0.033085931 1.074 0.089498356
0.15397049 -0.031188933 1.079125 0.089498356
0.1620837 -0.032197241 1.0785 0.089498356
0.17012914 -0.032167386 1.0775 0.089498356
0.14971212 -0.030132424 1.0780001 0.089498356
0.14103216 -0.028596321 1.059 0.089498356
0.17002992 -0.028224112 1.0833751 0.089498356
0.1435862 -0.026682967 1.0630001 0.089498356
0.14421704 -0.023131356 1.0701667 0.089498356
0.15502355 -0.0280242 1.0836002 0.089498356
0.16180687 -0.028227724 1.0835001 0.089498356
0.15401745 -0.023439821 1.0885 0.089498356
0.15503003 -0.020920154 1.092 0.089498356
0.16247858 -0.023170641 1.0880001 0.089498356
0.17067695 -0.02316015 1.0875 0.089498356
0.17831306 -0.0229748 1.0876365 0.089498356
0.16203895 -0.019104872 1.092 0.089498356
0.16930671 -0.019104872 1.092 0.089498356
0.17710429 -0.019087376 1.0910001 0.089498356
0.153254 -0.016569706 1.0960001 0.089498356
0.16168293 -0.016056523 1.0966251 0.089498356
0.17000344 -0.016055049 1.0965 0.089498356
0.15422241 -0.013861935 1.0997143 0.089498356
0.16214356 -0.012966718 1.09975 0.089498356
0.17043006 -0.012960822 1.0992501 0.089498356
0.16227713 -0.010013874 1.1037142 0.089498356
0.17007616 -0.0098639363 1.10375 0.089498356
0.15565743 -0.0067422967 1.1081667 0.089498356
0.16952732 -0.0056845807 1.107 0.089498356
0.16134216 -0.0056918561 1.1086251 0.089498356
0.15320669 -0.000421946 1.1118572 0.089498356
0.16199826 -0.0014818395 1.1131252 0.089498356
0.17029254 -0.0014804599 1.112 0.089498356
0.17838907 -0.0016321578 1.1125716 0.089498356
0.15581329 0.0024075892 1.1168333 0.089498356
0.16221069 0.0026118073 1.1177143 0.089498356
0.16993751 0.0027606469 1.1166251 0.089498356
0.1779083 0.0029132876 1.1171429 0.089498356
0.14627716 0.0090736616 1.11025 0.089498356
0.15349977 0.0068181669 1.1206 0.089498356
0.15475464 0.010279479 1.125875 0.089498356
0.16186848 0.0094200643 1.1254667 0.089498356
0.17027493 0.0066797077 1.1211667 0.089498356
0.17770949 0.0073893722 1.1209999 0.089498356
0.16988359 0.010708387 1.1261001 0.089498356
0.14762959 0.01125 1.1165 0.089498356
0.14955534 0.012384658 1.123 0.089498356
0.14360261 0.015409302 1.1100001 0.089498356
0.14501254 0.018275108 1.1176 0.089498356
0.14875111 0.01668714 1.125 0.089498356
0.15357563 0.015133938 1.1289999 0.089498356
0.16223395 0.014604161 1.1295 0.089498356
0.16962604 0.014593386 1.1286668 0.089498356
0.17722774 0.014600929 1.12925 0.089498356
0.16245708 0.017749565 1.1342858 0.089498356
0.16972533 0.018043548 1.1334287 0.089498356
0.1778952 0.017890206 1.1335001 0.089498356
0.14389709 0.023010612 1.1205001 0.089498356
0.18616559 -0.050699744 1.0580001 0.089498356
0.19408047 -0.047893766 1.062786 0.089498356
0.19889495 -0.048087604 1.0626 0.089498356
0.1863261 -0.04688305 1.0627502 0.089498356
0.17833559 -0.043704271 1.0673333 0.089498356
0.18572028 -0.043015145 1.067 0.089498356
0.19079268 -0.043015145 1.067 0.089498356
