# .PCD v0.7 - Point Cloud Data file format
VERSION 0.7
FIELDS x y z rgba
SIZE 4 4 4 4
TYPE F F F U
COUNT 1 1 1 1
WIDTH 1089
HEIGHT 1
VIEWPOINT 0 0 0 1 0 0 0
POINTS 1089
DATA ascii
-0.37096101 -0.033393994 1.0840001 4285494894
-0.36889973 -0.033393994 1.0840001 4285494894
-0.36683843 -0.033393994 1.0840001 4285560687
-0.36477715 -0.033393994 1.0840001 4285626480
-0.36271587 -0.033393994 1.0840001 4285494641
-0.36032188 -0.03336319 1.0830001 4285560434
-0.35826251 -0.03336319 1.0830001 4285626227
-0.35620311 -0.03336319 1.0830001 4285692020
-0.35414371 -0.03336319 1.0830001 4285692020
-0.35208434 -0.03336319 1.0830001 4285626227
-0.34970173 -0.033332381 1.082 4285494641
-0.34764424 -0.033332381 1.082 4285428848
-0.34558678 -0.033332381 1.082 4285363055
-0.34416425 -0.033393994 1.0840001 4285363055
-0.34210294 -0.033393994 1.0840001 4285363055
-0.339728 -0.03336319 1.0830001 4285363055
-0.33735681 -0.033332381 1.082 4285363055
-0.33529931 -0.033332381 1.082 4285363055
-0.33293384 -0.033301577 1.0810001 4285363055
-0.33087826 -0.033301577 1.0810001 4285363309
-0.32882267 -0.033301577 1.0810001 4285428589
-0.32676709 -0.033301577 1.0810001 4285231209
-0.32441112 -0.033270769 1.08 4285362281
-0.32146201 -0.033178352 1.077 4285428074
-0.31526193 -0.032747064 1.0630001 4285690731
-0.31235653 -0.032654643 1.0600001 4285690731
-0.30858427 -0.032469805 1.054 4285822060
-0.3057074 -0.032377385 1.051 4285887853
-0.30341989 -0.032346584 1.0500001 4286018667
-0.30142325 -0.032346584 1.0500001 4285952874
-0.29971176 -0.032377385 1.051 4285821542
-0.29771322 -0.032377385 1.051 4285887335
-0.29599607 -0.032408193 1.052 4285953128
-0.29399562 -0.032408193 1.052 4286018921
-0.29199517 -0.032408193 1.052 4286018920
-0.28999475 -0.032408193 1.052 4285953127
-0.2879943 -0.032408193 1.052 4285953127
-0.28599384 -0.032408193 1.052 4285887334
-0.28399342 -0.032408193 1.052 4285887334
-0.28199297 -0.032408193 1.052 4286018920
-0.27999252 -0.032408193 1.052 4286018920
-0.2779921 -0.032408193 1.052 4285953127
-0.27599165 -0.032408193 1.052 4285953127
-0.27425167 -0.032439001 1.0530001 4286084713
-0.27276641 -0.032500613 1.0550001 4285821541
-0.27076027 -0.032500613 1.0550001 4285953127
-0.26875412 -0.032500613 1.0550001 4286018920
-0.26674798 -0.032500613 1.0550001 4286084713
-0.2644909 -0.032469805 1.054 4286084713
-0.26248667 -0.032469805 1.054 4286018920
-0.26048243 -0.032469805 1.054 4286018920
-0.25872338 -0.032500613 1.0550001 4286018920
-0.25647393 -0.032469805 1.054 4286018667
-0.25446969 -0.032469805 1.054 4286018667
-0.25222591 -0.032439001 1.0530001 4285822058
-0.24998593 -0.032408193 1.052 4285887851
-0.24774978 -0.032377385 1.051 4285953644
-0.24598505 -0.032408193 1.052 4285953644
-0.24375269 -0.032377385 1.051 4285888364
-0.2422142 -0.032439001 1.0530001 4285888364
-0.2406681 -0.032500613 1.0550001 4285954157
-0.23888816 -0.032531418 1.056 4285822571
-0.23710445 -0.032562226 1.057 4285822060
-0.23487207 -0.032531418 1.056 4285887853
-0.23264351 -0.032500613 1.0550001 4286019439
-0.23041876 -0.032469805 1.054 4285953646
-0.22819781 -0.032439001 1.0530001 4285952876
-0.22598065 -0.032408193 1.052 4285755497
-0.2239802 -0.032408193 1.052 4285624679
-0.22197977 -0.032408193 1.052 4285887851
-0.21997933 -0.032408193 1.052 4286216816
-0.21797888 -0.032408193 1.052 4286216816
-0.21597844 -0.032408193 1.052 4285822058
-0.21397801 -0.032408193 1.052 4285427300
-0.21217906 -0.032439001 1.0530001 4285295714
-0.21017672 -0.032439001 1.0530001 4285427300
-0.20837207 -0.032469805 1.054 4285558886
-0.20675942 -0.032531418 1.056 4285887851
-0.20475137 -0.032531418 1.056 4285953644
-0.20293532 -0.032562226 1.057 4285690472
-0.20092538 -0.032562226 1.057 4285558886
-0.19872724 -0.032531418 1.056 4285690472
-0.19653291 -0.032500613 1.0550001 4285822058
-0.19434237 -0.032469805 1.054 4285756265
-0.19233812 -0.032469805 1.054 4285821288
-0.19033389 -0.032469805 1.054 4285821288
-0.18832964 -0.032469805 1.054 4285755495
-0.1863254 -0.032469805 1.054 4285755495
-0.18432115 -0.032469805 1.054 4285821288
-0.18231691 -0.032469805 1.054 4285821288
-0.18031266 -0.032469805 1.054 4285821288
-0.1784776 -0.032500613 1.0550001 4285821288
-0.17647146 -0.032500613 1.0550001 4285755749
-0.17446531 -0.032500613 1.0550001 4285492577
-0.17245917 -0.032500613 1.0550001 4285492577
-0.17045303 -0.032500613 1.0550001 4285755749
-0.16860653 -0.032531418 1.056 4286018921
-0.16644073 -0.032500613 1.0550001 4285953128
-0.16427872 -0.032469805 1.054 4285689956
-0.16212052 -0.032439001 1.0530001 4285624163
-0.15981406 -0.032377385 1.051 4285295716
-0.15781553 -0.032377385 1.051 4285427302
-0.15611349 -0.032439001 1.0530001 4286216818
-0.15455021 -0.032531418 1.056 4285953646
-0.15283108 -0.03259303 1.0580001 4285361509
-0.15096177 -0.032623835 1.059 4285295716
-0.14894803 -0.032623835 1.059 4285953646
-0.14679553 -0.03259303 1.0580001 4285953646
-0.14464682 -0.032562226 1.057 4285690474
-0.14263688 -0.032562226 1.057 4285756267
-0.14062694 -0.032562226 1.057 4285822060
-0.13848583 -0.032531418 1.056 4285822060
-0.13660704 -0.032562226 1.057 4285822060
-0.13459709 -0.032562226 1.057 4285690474
-0.1324617 -0.032531418 1.056 4285624681
-0.13045365 -0.032531418 1.056 4285558888
-0.1284456 -0.032531418 1.056 4285361507
-0.12643756 -0.032531418 1.056 4285361507
-0.12454735 -0.032562226 1.057 4285690472
-0.1225374 -0.032562226 1.057 4285558886
-0.12052745 -0.032562226 1.057 4285624681
-0.1185175 -0.032562226 1.057 4285822060
-0.11639733 -0.032531418 1.056 4285558634
-0.11417264 -0.032469805 1.054 4285624427
-0.11195555 -0.032408193 1.052 4285163876
-0.10995511 -0.032408193 1.052 4285098083
-0.10795467 -0.032408193 1.052 4285229923
-0.10615566 -0.032469805 1.054 4285887853
-0.10415142 -0.032469805 1.054 4286348402
-0.10224409 -0.032500613 1.0550001 4285887851
-0.10033296 -0.032531418 1.056 4285558886
-0.09832491 -0.032531418 1.056 4285953644
-0.096408077 -0.032562226 1.057 4285559399
-0.094487429 -0.03259303 1.0580001 4285559399
-0.092475578 -0.03259303 1.0580001 4285624679
-0.090463735 -0.03259303 1.0580001 4285624679
-0.088451885 -0.03259303 1.0580001 4285690474
-0.086358331 -0.032562226 1.057 4285690474
-0.084348388 -0.032562226 1.057 4285624681
-0.082338437 -0.032562226 1.057 4285558888
-0.080328487 -0.032562226 1.057 4285822058
-0.078244448 -0.032531418 1.056 4285295714
-0.076236397 -0.032531418 1.056 4285623909
-0.074087769 -0.032469805 1.054 4285821288
-0.072083525 -0.032469805 1.054 4285492577
-0.070145771 -0.032500613 1.0550001 4285624163
-0.068139628 -0.032500613 1.0550001 4286018920
-0.066070795 -0.032469805 1.054 4286018920
-0.064066552 -0.032469805 1.054 4285822311
-0.062062308 -0.032469805 1.054 4285164381
-0.060058065 -0.032469805 1.054 4284440658
-0.058053821 -0.032469805 1.054 4284769623
-0.055996399 -0.032439001 1.0530001 4285230174
-0.054045334 -0.032469805 1.054 4285624932
-0.052041091 -0.032469805 1.054 4286019690
-0.050084323 -0.032500613 1.0550001 4285361760
-0.048078176 -0.032500613 1.0550001 4285493346
-0.046028361 -0.032469805 1.054 4285493346
-0.043982349 -0.032439001 1.0530001 4285558884
-0.041980006 -0.032439001 1.0530001 4285558884
-0.039939702 -0.032408193 1.052 4285558886
-0.037975322 -0.032439001 1.0530001 4285558888
-0.035972983 -0.032439001 1.0530001 4285624427
-0.0340029 -0.032469805 1.054 4285690220
-0.031998657 -0.032469805 1.054 4285690220
-0.029965956 -0.032439001 1.0530001 4285690220
-0.027963614 -0.032439001 1.0530001 4285624427
-0.025961272 -0.032439001 1.0530001 4285427302
-0.023981683 -0.032469805 1.054 4285427300
-0.02199829 -0.032500613 1.0550001 4285558886
-0.020011095 -0.032531418 1.056 4285624677
-0.018003048 -0.032531418 1.056 4285624677
-0.015995003 -0.032531418 1.056 4285558884
-0.013960466 -0.032469805 1.054 4285690470
-0.011933535 -0.032408193 1.052 4284703575
-0.0099236527 -0.032377385 1.051 4283650887
-0.0079251137 -0.032377385 1.051 4283256129
-0.005926575 -0.032377385 1.051 4284045645
-0.0039355108 -0.032439001 1.0530001 4285558884
-0.0019368409 -0.032500613 1.0550001 4286019435
6.9304078e-05 -0.032500613 1.0550001 4285558888
0.0020754491 -0.032500613 1.0550001 4285624681
0.0040777251 -0.032469805 1.054 4285624681
0.0060819685 -0.032469805 1.054 4285624681
0.008086212 -0.032469805 1.054 4285558888
0.010100028 -0.032500613 1.0550001 4285558888
0.012117649 -0.032531418 1.056 4285558888
0.014125695 -0.032531418 1.056 4285558888
0.016133742 -0.032531418 1.056 4285624679
0.018141789 -0.032531418 1.056 4285624679
0.020149836 -0.032531418 1.056 4285558886
0.022157881 -0.032531418 1.056 4285493093
0.024211697 -0.03259303 1.0580001 4285493093
0.026248332 -0.032623835 1.059 4285493093
0.028235396 -0.03259303 1.0580001 4285493093
0.030218657 -0.032562226 1.057 4285493093
0.032198116 -0.032531418 1.056 4285361507
0.034141377 -0.032469805 1.054 4285756265
0.036077034 -0.032408193 1.052 4285361507
0.038005084 -0.032346584 1.0500001 4284440405
0.04000172 -0.032346584 1.0500001 4283585096
0.041958358 -0.032315776 1.049 4282992959
0.043953095 -0.032315776 1.049 4283124545
0.045947827 -0.032315776 1.049 4283848268
0.048033975 -0.032377385 1.051 4285295714
0.050175324 -0.032469805 1.054 4285822058
0.052229073 -0.032500613 1.0550001 4285558886
0.054286625 -0.032531418 1.056 4285427300
0.056294672 -0.032531418 1.056 4285493093
0.058247507 -0.032500613 1.0550001 4285295714
0.060253654 -0.032500613 1.0550001 4285493093
0.062259797 -0.032500613 1.0550001 4285690472
0.064265944 -0.032500613 1.0550001 4285427298
0.066334903 -0.032531418 1.056 4285427298
0.068278231 -0.032500613 1.0550001 4285493091
0.070217758 -0.032469805 1.054 4285558884
0.072290525 -0.032500613 1.0550001 4285558886
0.074296668 -0.032500613 1.0550001 4285493093
0.076302812 -0.032500613 1.0550001 4285427302
0.078086279 -0.032408193 1.052 4285427302
0.080162846 -0.032439001 1.0530001 4285558888
0.082165189 -0.032439001 1.0530001 4285558888
0.084087603 -0.032408193 1.052 4285493093
0.086006209 -0.032377385 1.051 4285493093
0.087921016 -0.032346584 1.0500001 4285493091
0.089832015 -0.032315776 1.049 4285493091
0.091826752 -0.032315776 1.049 4285558884
0.093821488 -0.032315776 1.049 4285558884
0.095724881 -0.032284968 1.0480001 4285493093
0.09771771 -0.032284968 1.0480001 4285493093
0.099710546 -0.032284968 1.0480001 4285493093
0.10180043 -0.032315776 1.049 4285558886
0.10379516 -0.032315776 1.049 4285624677
0.1057899 -0.032315776 1.049 4285624677
0.10788739 -0.032346584 1.0500001 4285493346
0.10988402 -0.032346584 1.0500001 4285427553
0.11188066 -0.032346584 1.0500001 4285559139
0.1138773 -0.032346584 1.0500001 4285559139
0.11598429 -0.032377385 1.051 4285493091
0.11787057 -0.032346584 1.0500001 4285493091
0.11986721 -0.032346584 1.0500001 4285558886
0.12197991 -0.032377385 1.051 4285558886
0.12397844 -0.032377385 1.051 4285558886
0.12585711 -0.032346584 1.0500001 4285493093
0.12797552 -0.032377385 1.051 4285690472
0.12997405 -0.032377385 1.051 4285624679
0.1319726 -0.032377385 1.051 4285690985
0.13384368 -0.032346584 1.0500001 4285690985
0.13596967 -0.032377385 1.051 4285493354
0.13796821 -0.032377385 1.051 4285493354
0.1402331 -0.032439001 1.0530001 4285559405
0.1425056 -0.032500613 1.0550001 4285427819
0.14560756 -0.032747064 1.0630001 4284375901
0.14887884 -0.033024319 1.072 4284507487
0.15119888 -0.033085931 1.074 4284573793
0.15366919 -0.033178352 1.077 4284639586
0.15586177 -0.033209156 1.0780001 4284705379
0.15776515 -0.033178352 1.077 4284771172
0.15981314 -0.033178352 1.077 4284706149
0.16186111 -0.033178352 1.077 4284771942
0.16375691 -0.033147544 1.0760001 4285034344
0.16580299 -0.033147544 1.0760001 4285034344
0.16784906 -0.033147544 1.0760001 4285034344
0.16989514 -0.033147544 1.0760001 4285034344
0.17178142 -0.033116739 1.075 4285034344
0.17382561 -0.033116739 1.075 4285100137
0.17586978 -0.033116739 1.075 4285165676
0.17807944 -0.033147544 1.0760001 4285165676
0.18012552 -0.033147544 1.0760001 4285099883
0.18234091 -0.033178352 1.077 4285165676
0.18438888 -0.033178352 1.077 4285231469
0.18643686 -0.033178352 1.077 4285165676
0.18848485 -0.033178352 1.077 4285231469
0.19053282 -0.033178352 1.077 4285297262
0.1925808 -0.033178352 1.077 4285297262
0.19444807 -0.033147544 1.0760001 4285231469
0.19667676 -0.033178352 1.077 4285034344
0.19872473 -0.033178352 1.077 4285165930
-0.379556 -0.031361602 1.085 4285692274
-0.37784076 -0.031390507 1.0860001 4285692274
-0.37612167 -0.031419408 1.087 4285626481
-0.37405467 -0.031419408 1.087 4285560688
-0.37198767 -0.031419408 1.087 4285560687
-0.36958036 -0.031390507 1.0860001 4285560687
-0.36751527 -0.031390507 1.0860001 4285626480
-0.36545017 -0.031390507 1.0860001 4285626481
-0.36338508 -0.031390507 1.0860001 4285560434
-0.36131999 -0.031390507 1.0860001 4285626227
-0.3592549 -0.031390507 1.0860001 4285626227
-0.3571898 -0.031390507 1.0860001 4285692020
-0.35512471 -0.031390507 1.0860001 4285692020
-0.35305962 -0.031390507 1.0860001 4285626227
-0.35099453 -0.031390507 1.0860001 4285560434
-0.34860814 -0.031361602 1.085 4285494641
-0.34654495 -0.031361602 1.085 4285494641
-0.34479925 -0.031390507 1.0860001 4285494641
-0.34273416 -0.031390507 1.0860001 4285428848
-0.34066907 -0.031390507 1.0860001 4285428848
-0.33829218 -0.031361602 1.085 4285428848
-0.33622897 -0.031361602 1.085 4285428848
-0.3338578 -0.031332694 1.0840001 4285428848
-0.3317965 -0.031332694 1.0840001 4285363055
-0.32943106 -0.031303793 1.0830001 4285428589
-0.32737166 -0.031303793 1.0830001 4285297002
-0.32501188 -0.031274885 1.082 4285362281
-0.32235745 -0.031217078 1.08 4285362281
-0.31704143 -0.030899126 1.069 4285559145
-0.31412461 -0.030812413 1.0660001 4285690731
-0.31004813 -0.030610079 1.059 4285822060
-0.30687088 -0.030494461 1.0550001 4285887853
-0.30486473 -0.030494461 1.0550001 4285952874
-0.30257154 -0.030465554 1.054 4285952874
-0.3005673 -0.030465554 1.054 4285887335
-0.29856303 -0.030465554 1.054 4285887335
-0.29627743 -0.03043665 1.0530001 4285953128
-0.29427508 -0.03043665 1.0530001 4286018921
-0.29255033 -0.030465554 1.054 4286018920
-0.29054606 -0.030465554 1.054 4285953127
-0.28854182 -0.030465554 1.054 4285953127
-0.28653759 -0.030465554 1.054 4285887334
-0.28453335 -0.030465554 1.054 4285953127
-0.28252909 -0.030465554 1.054 4286018920
-0.28079098 -0.030494461 1.0550001 4286084713
-0.27878484 -0.030494461 1.0550001 4286018920
-0.2767787 -0.030494461 1.0550001 4286018920
-0.27529347 -0.030552268 1.057 4286084713
-0.27354205 -0.030581174 1.0580001 4285887334
-0.27153021 -0.030581174 1.0580001 4285953127
-0.26951838 -0.030581174 1.0580001 4286084713
-0.26750651 -0.030581174 1.0580001 4286150506
-0.26524371 -0.030552268 1.057 4286150506
-0.26348281 -0.030581174 1.0580001 4286084713
-0.26147097 -0.030581174 1.0580001 4286084713
-0.25945911 -0.030581174 1.0580001 4286084713
-0.25744727 -0.030581174 1.0580001 4286018921
-0.25519398 -0.030552268 1.057 4286018667
-0.2529445 -0.030523365 1.056 4285887851
-0.2506988 -0.030494461 1.0550001 4285887851
-0.24869268 -0.030494461 1.0550001 4285953644
-0.24668653 -0.030494461 1.0550001 4285953644
-0.24468039 -0.030494461 1.0550001 4285954157
-0.24313429 -0.030552268 1.057 4285954157
-0.24158058 -0.030610079 1.059 4285954157
-0.23956683 -0.030610079 1.059 4285888364
-0.2377774 -0.030638983 1.0600001 4285822060
-0.23553933 -0.030610079 1.059 4285887853
-0.23352557 -0.030610079 1.059 4285953646
-0.23063737 -0.030494461 1.0550001 4285953646
-0.22841451 -0.030465554 1.054 4286018669
-0.22619547 -0.03043665 1.0530001 4285887083
-0.22419313 -0.03043665 1.0530001 4286019437
-0.22219078 -0.03043665 1.0530001 4285558886
-0.21997933 -0.030407745 1.052 4285427300
-0.21797888 -0.030407745 1.052 4285822058
-0.21577315 -0.030378843 1.051 4286216816
-0.21397801 -0.030407745 1.052 4286282609
-0.21217906 -0.03043665 1.0530001 4286151023
-0.21017672 -0.03043665 1.0530001 4286151023
-0.20837207 -0.030465554 1.054 4286151023
-0.20675942 -0.030523365 1.056 4286019437
-0.20494527 -0.030552268 1.057 4285822058
-0.20312732 -0.030581174 1.0580001 4285756265
-0.20111547 -0.030581174 1.0580001 4285756265
-0.19872724 -0.030523365 1.056 4285887851
-0.19653291 -0.030494461 1.0550001 4285887851
-0.19452676 -0.030494461 1.0550001 4285756265
-0.19252062 -0.030494461 1.0550001 4285887081
-0.19051448 -0.030494461 1.0550001 4285887081
-0.18850833 -0.030494461 1.0550001 4285821288
-0.18650219 -0.030494461 1.0550001 4285887081
-0.18449603 -0.030494461 1.0550001 4285887081
-0.18248989 -0.030494461 1.0550001 4285887081
-0.18048374 -0.030494461 1.0550001 4285887081
-0.1784776 -0.030494461 1.0550001 4285887081
-0.17647146 -0.030494461 1.0550001 4286084714
-0.17446531 -0.030494461 1.0550001 4286084714
-0.17245917 -0.030494461 1.0550001 4285953128
-0.17061459 -0.030523365 1.056 4285755749
-0.1687662 -0.030552268 1.057 4285689956
-0.16659848 -0.030523365 1.056 4285821542
-0.16443458 -0.030494461 1.0550001 4286150507
-0.16212052 -0.03043665 1.0530001 4286282093
-0.15996611 -0.030407745 1.052 4286282611
-0.15781553 -0.030378843 1.051 4286085232
-0.15626174 -0.030465554 1.054 4286085232
-0.15469657 -0.030552268 1.057 4285690474
-0.15311998 -0.030638983 1.0600001 4285493095
-0.15110433 -0.030638983 1.0600001 4285558888
-0.14908868 -0.030638983 1.0600001 4285887853
-0.14693427 -0.030610079 1.059 4285558888
-0.14492051 -0.030610079 1.059 4285624681
-0.14277183 -0.030581174 1.0580001 4285624681
-0.14075997 -0.030581174 1.0580001 4285690474
-0.13874814 -0.030581174 1.0580001 4285690474
-0.13673629 -0.030581174 1.0580001 4285690474
-0.13472444 -0.030581174 1.0580001 4285624681
-0.13258713 -0.030552268 1.057 4285624681
-0.13057719 -0.030552268 1.057 4285624681
-0.12856725 -0.030552268 1.057 4285624679
-0.12667704 -0.030581174 1.0580001 4285756265
-0.12466519 -0.030581174 1.0580001 4285887851
-0.12276926 -0.030610079 1.059 4285624679
-0.12064148 -0.030581174 1.0580001 4285427302
-0.11862963 -0.030581174 1.0580001 4285493095
-0.11650755 -0.030552268 1.057 4285756013
-0.11428096 -0.030494461 1.0550001 4286150771
-0.11227482 -0.030494461 1.0550001 4286019185
-0.11016415 -0.030465554 1.054 4286150771
-0.10815991 -0.030465554 1.054 4286216818
-0.10625638 -0.030494461 1.0550001 4285887853
-0.10425024 -0.030494461 1.0550001 4285361507
-0.102341 -0.030523365 1.056 4285229921
-0.10042797 -0.030552268 1.057 4285493093
-0.09841802 -0.030552268 1.057 4285624679
-0.096408077 -0.030552268 1.057 4285559399
-0.094487429 -0.030581174 1.0580001 4285493606
-0.092475578 -0.030581174 1.0580001 4285558886
-0.090463735 -0.030581174 1.0580001 4285624679
-0.088535488 -0.030610079 1.059 4285624681
-0.08652173 -0.030610079 1.059 4285624681
-0.084507979 -0.030610079 1.059 4285558888
-0.082416333 -0.030581174 1.0580001 4285493095
-0.080328487 -0.030552268 1.057 4285756265
-0.078244448 -0.030523365 1.056 4285427300
-0.076236397 -0.030523365 1.056 4285755495
-0.074228354 -0.030523365 1.056 4285952874
-0.072288699 -0.030552268 1.057 4285558370
-0.070345238 -0.030581174 1.0580001 4285360991
-0.068333387 -0.030581174 1.0580001 4285624162
-0.066258848 -0.030552268 1.057 4285755748
-0.064248905 -0.030552268 1.057 4285690725
-0.062238954 -0.030552268 1.057 4285953897
-0.060172029 -0.030523365 1.056 4286217069
-0.058163982 -0.030523365 1.056 4286019690
-0.056155935 -0.030523365 1.056 4285756518
-0.054147888 -0.030523365 1.056 4285493346
-0.052189216 -0.030552268 1.057 4285164381
-0.050274216 -0.030610079 1.059 4285295967
-0.048260462 -0.030610079 1.059 4285427553
-0.046246711 -0.030610079 1.059 4285493346
-0.044191193 -0.030581174 1.0580001 4285558884
-0.042139474 -0.030552268 1.057 4285558886
-0.040129527 -0.030552268 1.057 4285558888
-0.038119577 -0.030552268 1.057 4285558888
-0.03610963 -0.030552268 1.057 4285624427
-0.034099683 -0.030552268 1.057 4285690220
-0.032089733 -0.030552268 1.057 4285690220
-0.030079788 -0.030552268 1.057 4285690474
-0.028043281 -0.030523365 1.056 4285624681
-0.026035236 -0.030523365 1.056 4285493095
-0.024027189 -0.030523365 1.056 4285493093
-0.022060845 -0.030581174 1.0580001 4285624679
-0.020067945 -0.030610079 1.059 4285624677
-0.018071242 -0.030638983 1.0600001 4285624677
-0.01605559 -0.030638983 1.0600001 4285361505
-0.014000202 -0.030552268 1.057 4286151021
-0.011967566 -0.030494461 1.0550001 4285887849
-0.0099425362 -0.03043665 1.0530001 4285756263
-0.0079477355 -0.030465554 1.054 4285624677
-0.0059434921 -0.030465554 1.054 4285690470
-0.0039504603 -0.030552268 1.057 4286085228
-0.0019423486 -0.030581174 1.0580001 4285427300
6.9501155e-05 -0.030581174 1.0580001 4285558888
0.0020813509 -0.030581174 1.0580001 4285558888
0.0040932004 -0.030581174 1.0580001 4285558888
0.00609928 -0.030552268 1.057 4285624681
0.0081169 -0.030581174 1.0580001 4285624681
0.010138323 -0.030610079 1.059 4285558888
0.01216355 -0.030638983 1.0600001 4285493095
0.014179202 -0.030638983 1.0600001 4285493095
0.016210133 -0.030667888 1.0610001 4285493093
0.018227687 -0.030667888 1.0610001 4285493093
0.020226162 -0.030638983 1.0600001 4285493093
0.022241814 -0.030638983 1.0600001 4285493093
0.024280351 -0.030667888 1.0610001 4285493093
0.026297905 -0.030667888 1.0610001 4285427300
0.02831546 -0.030667888 1.0610001 4285361507
0.030304426 -0.030638983 1.0600001 4285361507
0.032259095 -0.030581174 1.0580001 4285295714
0.034238555 -0.030552268 1.057 4285427300
0.036179911 -0.030494461 1.0550001 4285690472
0.038149863 -0.030465554 1.054 4285822058
0.040116012 -0.03043665 1.0530001 4285558886
0.042118352 -0.03043665 1.0530001 4285493093
0.044120695 -0.03043665 1.0530001 4285756265
0.046123035 -0.03043665 1.0530001 4286019437
0.048216783 -0.030494461 1.0550001 4285690472
0.050318141 -0.030552268 1.057 4285624679
0.052377593 -0.030581174 1.0580001 4285295714
0.05438944 -0.030581174 1.0580001 4285558886
0.05640129 -0.030581174 1.0580001 4285558886
0.05841314 -0.030581174 1.0580001 4285427300
0.060482103 -0.030610079 1.059 4285624679
0.062436845 -0.030581174 1.0580001 4285427300
0.064448692 -0.030581174 1.0580001 4285361505
0.066460542 -0.030581174 1.0580001 4285427298
0.068472393 -0.030581174 1.0580001 4285493091
0.07041762 -0.030552268 1.057 4285558884
0.072496094 -0.030581174 1.0580001 4285558886
0.074507944 -0.030581174 1.0580001 4285493093
0.076519795 -0.030581174 1.0580001 4285427302
0.078605868 -0.030610079 1.059 4285361509
0.080619618 -0.030610079 1.059 4285558888
0.082633369 -0.030610079 1.059 4285558888
0.084247462 -0.030465554 1.054 4285493093
0.086169869 -0.03043665 1.0530001 4285427300
0.088172212 -0.03043665 1.0530001 4285427298
0.090174556 -0.03043665 1.0530001 4285493091
0.092176899 -0.03043665 1.0530001 4285558884
0.094179235 -0.03043665 1.0530001 4285558884
0.096090242 -0.030407745 1.052 4285427300
0.097997442 -0.030378843 1.051 4285427300
0.099995978 -0.030378843 1.051 4285427300
0.10199452 -0.030378843 1.051 4285427300
0.10409201 -0.030407745 1.052 4285493091
0.10609245 -0.030407745 1.052 4285493091
0.10819563 -0.03043665 1.0530001 4285427553
0.11019798 -0.03043665 1.0530001 4285427553
0.11220031 -0.03043665 1.0530001 4285559139
0.11420266 -0.03043665 1.0530001 4285559139
0.11631536 -0.030465554 1.054 4285558884
0.1183196 -0.030465554 1.054 4285558884
0.12032384 -0.030465554 1.054 4285624679
0.12221202 -0.03043665 1.0530001 4285624679
0.12421437 -0.03043665 1.0530001 4285624679
0.12621671 -0.03043665 1.0530001 4285624679
0.12821905 -0.03043665 1.0530001 4285690472
0.13034506 -0.030465554 1.054 4285624679
0.13234931 -0.030465554 1.054 4285690985
0.13435355 -0.030465554 1.054 4285756778
0.13622841 -0.03043665 1.0530001 4285624940
0.13823076 -0.03043665 1.0530001 4285690733
0.14063263 -0.030523365 1.056 4285756784
0.1430459 -0.030610079 1.059 4285493612
0.14629246 -0.03087022 1.0680001 4284441694
0.14943436 -0.03110146 1.0760001 4284507487
0.15162121 -0.031130364 1.077 4284573793
0.15409724 -0.031217078 1.08 4284639586
0.15629551 -0.031245984 1.0810001 4284705379
0.15835109 -0.031245984 1.0810001 4284771172
0.16040668 -0.031245984 1.0810001 4284706149
0.16231199 -0.031217078 1.08 4284837735
0.16436566 -0.031217078 1.08 4284968551
0.16641936 -0.031217078 1.08 4284968551
0.16847304 -0.031217078 1.08 4284968551
0.17036882 -0.031188171 1.079 4285034344
0.17242061 -0.031188171 1.079 4285100137
0.1743107 -0.031159269 1.0780001 4285165930
0.17652416 -0.031188171 1.079 4285231469
0.17857595 -0.031188171 1.079 4285231469
0.18062773 -0.031188171 1.079 4285165676
0.18284883 -0.031217078 1.08 4285165676
0.1849025 -0.031217078 1.08 4285165676
0.1869562 -0.031217078 1.08 4285165676
0.18883486 -0.031188171 1.079 4285231469
0.19088665 -0.031188171 1.079 4285297262
0.19293843 -0.031188171 1.079 4285363055
0.1949902 -0.031188171 1.079 4285363055
0.19722462 -0.031217078 1.08 4285165930
0.19946282 -0.031245984 1.0810001 4285231723
-0.37818867 -0.029352408 1.087 4285626481
-0.37646767 -0.029379411 1.0880001 4285692274
-0.3747429 -0.029406413 1.0890001 4285692274
-0.37267211 -0.029406413 1.0890001 4285692274
-0.3706013 -0.029406413 1.0890001 4285692274
-0.36853051 -0.029406413 1.0890001 4285626481
-0.3664597 -0.029406413 1.0890001 4285626481
-0.36438891 -0.029406413 1.0890001 4285692020
-0.3623181 -0.029406413 1.0890001 4285626227
-0.35991651 -0.029379411 1.0880001 4285626227
-0.3581765 -0.029406413 1.0890001 4285626227
-0.35610572 -0.029406413 1.0890001 4285626227
-0.35436001 -0.029433418 1.09 4285626227
-0.35228732 -0.029433418 1.09 4285626227
-0.34989333 -0.029406413 1.0890001 4285626227
-0.34782252 -0.029406413 1.0890001 4285560434
-0.34575173 -0.029406413 1.0890001 4285560434
-0.34336531 -0.029379411 1.0880001 4285494641
-0.34129643 -0.029379411 1.0880001 4285494641
-0.33891577 -0.029352408 1.087 4285428848
-0.33715865 -0.029379411 1.0880001 4285428848
-0.33478177 -0.029352408 1.087 4285363055
-0.33271477 -0.029352408 1.087 4285363055
-0.3303436 -0.029325403 1.0860001 4285362796
-0.32827851 -0.029325403 1.0860001 4285297003
-0.32591301 -0.029298401 1.085 4285362281
-0.32355136 -0.029271398 1.0840001 4285296488
-0.32030374 -0.029163387 1.08 4285493354
-0.31559798 -0.028920358 1.0710001 4285624940
-0.31151202 -0.028731335 1.064 4285822060
-0.30803439 -0.028596321 1.059 4285822060
-0.30573165 -0.028569318 1.0580001 4285952874
-0.30343273 -0.028542314 1.057 4285887081
-0.30142277 -0.028542314 1.057 4285887335
-0.29941285 -0.028542314 1.057 4285953128
-0.29712152 -0.028515311 1.056 4285953128
-0.29511347 -0.028515311 1.056 4286018921
-0.29310542 -0.028515311 1.056 4285953127
-0.29109737 -0.028515311 1.056 4285953127
-0.28908932 -0.028515311 1.056 4285953127
-0.28735316 -0.028542314 1.057 4285887334
-0.2853432 -0.028542314 1.057 4285953127
-0.28333324 -0.028542314 1.057 4286018920
-0.28132331 -0.028542314 1.057 4286018920
-0.27957761 -0.028569318 1.0580001 4285953127
-0.27756575 -0.028569318 1.0580001 4285887334
-0.27581435 -0.028596321 1.059 4285953127
-0.27405915 -0.028623322 1.0600001 4285821541
-0.27230012 -0.028650325 1.0610001 4285887334
-0.27028257 -0.028650325 1.0610001 4286018920
-0.26801217 -0.028623322 1.0600001 4286018920
-0.26599652 -0.028623322 1.0600001 4286018920
-0.26422992 -0.028650325 1.0610001 4286018920
-0.26221237 -0.028650325 1.0610001 4286018920
-0.26019481 -0.028650325 1.0610001 4286018920
-0.25817725 -0.028650325 1.0610001 4286018921
-0.25591826 -0.028623322 1.0600001 4286018921
-0.25366309 -0.028596321 1.059 4285887851
-0.25141171 -0.028569318 1.0580001 4285822058
-0.24939987 -0.028569318 1.0580001 4285822058
-0.24762183 -0.028596321 1.059 4285887851
-0.24560808 -0.028596321 1.059 4285822571
-0.24405438 -0.028650325 1.0610001 4285888364
-0.24226494 -0.028677329 1.062 4285888364
-0.24024549 -0.028677329 1.062 4285888364
-0.23845036 -0.028704332 1.0630001 4285887853
-0.23620658 -0.028677329 1.062 4285822060
-0.23418713 -0.028677329 1.062 4285822060
-0.23129322 -0.028569318 1.0580001 4285822060
-0.22928137 -0.028569318 1.0580001 4286084462
-0.22726952 -0.028569318 1.0580001 4286150255
-0.22525766 -0.028569318 1.0580001 4286019437
-0.2230348 -0.028542314 1.057 4285953644
-0.22102486 -0.028542314 1.057 4285953644
-0.21901491 -0.028542314 1.057 4285887851
-0.21700495 -0.028542314 1.057 4285822058
-0.21499501 -0.028542314 1.057 4285756265
-0.21298507 -0.028542314 1.057 4285756265
-0.21077551 -0.028515311 1.056 4285690472
-0.20896517 -0.028542314 1.057 4285953644
-0.20734681 -0.028596321 1.059 4285756265
-0.20552696 -0.028623322 1.0600001 4285690472
-0.20389529 -0.028677329 1.062 4285822058
-0.20187584 -0.028677329 1.062 4285953644
-0.19948 -0.028623322 1.0600001 4285953644
-0.19727805 -0.028596321 1.059 4285887851
-0.19507992 -0.028569318 1.0580001 4285822058
-0.19306807 -0.028569318 1.0580001 4285887081
-0.19105622 -0.028569318 1.0580001 4285887081
-0.18922305 -0.028596321 1.059 4285887081
-0.18720929 -0.028596321 1.059 4285887081
-0.18519555 -0.028596321 1.059 4285887081
-0.18318179 -0.028596321 1.059 4285887081
-0.18116803 -0.028596321 1.059 4285887081
-0.17898512 -0.028569318 1.0580001 4285887081
-0.17697327 -0.028569318 1.0580001 4285426784
-0.17512679 -0.028596321 1.059 4285558370
-0.17327651 -0.028623322 1.0600001 4285689956
-0.17126086 -0.028623322 1.0600001 4285755749
-0.16940486 -0.028650325 1.0610001 4286018921
-0.16722955 -0.028623322 1.0600001 4286150507
-0.1652139 -0.028623322 1.0600001 4285953128
-0.16289033 -0.028569318 1.0580001 4285558370
-0.16072641 -0.028542314 1.057 4285229923
-0.1585663 -0.028515311 1.056 4285427302
-0.15685478 -0.028569318 1.0580001 4285624681
-0.15528198 -0.028650325 1.0610001 4285822060
-0.15355335 -0.028704332 1.0630001 4285558888
-0.15153199 -0.028704332 1.0630001 4285690474
-0.14965127 -0.028731335 1.064 4285690474
-0.14748928 -0.028704332 1.0630001 4285756267
-0.14546792 -0.028704332 1.0630001 4285690474
-0.1433116 -0.028677329 1.062 4285690474
-0.1411591 -0.028650325 1.0610001 4285624681
-0.13914154 -0.028650325 1.0610001 4285558888
-0.13712399 -0.028650325 1.0610001 4285558888
-0.13523379 -0.028677329 1.062 4285558888
-0.13321432 -0.028677329 1.062 4285624681
-0.13119487 -0.028677329 1.062 4285624681
-0.12905377 -0.028650325 1.0610001 4285822058
-0.12703621 -0.028650325 1.0610001 4285624679
-0.12513651 -0.028677329 1.062 4285361509
-0.12311704 -0.028677329 1.062 4285427302
-0.12109759 -0.028677329 1.062 4285558888
-0.11907814 -0.028677329 1.062 4285624681
-0.11694846 -0.028650325 1.0610001 4285624427
-0.11482258 -0.028623322 1.0600001 4285492841
-0.1127005 -0.028596321 1.059 4285492841
-0.11068675 -0.028596321 1.059 4285558634
-0.10857038 -0.028569318 1.0580001 4285690474
-0.10655853 -0.028569318 1.0580001 4285624681
-0.10464549 -0.028596321 1.059 4285624681
-0.10272866 -0.028623322 1.0600001 4285953646
-0.10080802 -0.028650325 1.0610001 4286019437
-0.098790467 -0.028650325 1.0610001 4285493093
-0.096772909 -0.028650325 1.0610001 4285559397
-0.094755359 -0.028650325 1.0610001 4285559397
-0.092650399 -0.028623322 1.0600001 4285624679
-0.090720251 -0.028650325 1.0610001 4285690472
-0.088786297 -0.028677329 1.062 4285690472
-0.086766839 -0.028677329 1.062 4285690472
-0.084827185 -0.028704332 1.0630001 4285624681
-0.082727931 -0.028677329 1.062 4285558888
-0.080632478 -0.028650325 1.0610001 4285493093
-0.078540832 -0.028623322 1.0600001 4285493093
-0.076236397 -0.028515311 1.056 4285755495
-0.074298643 -0.028542314 1.057 4285821288
-0.072288699 -0.028542314 1.057 4285624163
-0.070345238 -0.028569318 1.0580001 4285624163
-0.068397969 -0.028596321 1.059 4285624162
-0.066384219 -0.028596321 1.059 4285558369
-0.064370468 -0.028596321 1.059 4285361505
-0.06229784 -0.028569318 1.0580001 4285493091
-0.060229007 -0.028542314 1.057 4285756263
-0.058163982 -0.028515311 1.056 4285558884
-0.056155935 -0.028515311 1.056 4285624677
-0.054199163 -0.028542314 1.057 4285690470
-0.052238591 -0.028569318 1.0580001 4285427298
-0.050321687 -0.028623322 1.0600001 4285822056
-0.048351608 -0.028650325 1.0610001 4285493091
-0.046290383 -0.028623322 1.0600001 4285493091
-0.044232961 -0.028596321 1.059 4285558886
-0.04221921 -0.028596321 1.059 4285558886
-0.04020546 -0.028596321 1.059 4285558888
-0.038155645 -0.028569318 1.0580001 4285558888
-0.036143795 -0.028569318 1.0580001 4285624427
-0.034131944 -0.028569318 1.0580001 4285624427
-0.032120094 -0.028569318 1.0580001 4285558888
-0.030108243 -0.028569318 1.0580001 4285690472
-0.028069839 -0.028542314 1.057 4285624679
-0.02605989 -0.028542314 1.057 4285558886
-0.024049943 -0.028542314 1.057 4285558886
-0.022081697 -0.028596321 1.059 4285624679
-0.020086894 -0.028623322 1.0600001 4285624677
-0.01808829 -0.028650325 1.0610001 4285558884
-0.01605559 -0.028623322 1.0600001 4285756263
-0.014013446 -0.028569318 1.0580001 4285427298
-0.011978909 -0.028515311 1.056 4285361505
-0.0099614216 -0.028488308 1.0550001 4285624677
-0.0079552764 -0.028488308 1.0550001 4285756265
-0.0059547699 -0.028515311 1.056 4285493093
-0.0039541982 -0.028569318 1.0580001 4285361507
-0.0019460203 -0.028623322 1.0600001 4285427300
6.9566842e-05 -0.028596321 1.059 4285558888
0.0020833181 -0.028596321 1.059 4285558888
0.0040932004 -0.028569318 1.0580001 4285558888
0.00610505 -0.028569318 1.0580001 4285624681
0.0081169 -0.028569318 1.0580001 4285624681
0.010138323 -0.028596321 1.059 4285558888
0.012175024 -0.028650325 1.0610001 4285493095
0.014192579 -0.028650325 1.0610001 4285493095
0.01624069 -0.028704332 1.0630001 4285361507
0.018262047 -0.028704332 1.0630001 4285427300
0.020283405 -0.028704332 1.0630001 4285493093
0.022283779 -0.028677329 1.062 4285558886
0.024280351 -0.028650325 1.0610001 4285558886
0.026322691 -0.028677329 1.062 4285427300
0.02831546 -0.028650325 1.0610001 4285361507
0.030304426 -0.028623322 1.0600001 4285229921
0.032320078 -0.028623322 1.0600001 4285493093
0.034303337 -0.028596321 1.059 4285361507
0.036248501 -0.028542314 1.057 4285493093
0.038222253 -0.028515311 1.056 4285624679
0.040192202 -0.028488308 1.0550001 4285624679
0.042198349 -0.028488308 1.0550001 4285756265
0.044204492 -0.028488308 1.0550001 4285756265
0.046254441 -0.028515311 1.056 4285361507
0.04830819 -0.028542314 1.057 4285295714
0.050365742 -0.028569318 1.0580001 4285295714
0.052427098 -0.028596321 1.059 4285295714
0.054440849 -0.028596321 1.059 4285558886
0.056454603 -0.028596321 1.059 4285493093
0.058468353 -0.028596321 1.059 4285493093
0.060482103 -0.028596321 1.059 4285756265
0.062495857 -0.028596321 1.059 4285229921
0.064509608 -0.028596321 1.059 4285361505
0.066523358 -0.028596321 1.059 4285427298
0.068472393 -0.028569318 1.0580001 4285493091
0.070484243 -0.028569318 1.0580001 4285558884
0.072564617 -0.028596321 1.059 4285624679
0.074578367 -0.028596321 1.059 4285558886
0.076592118 -0.028596321 1.059 4285493095
0.078680091 -0.028623322 1.0600001 4285427302
0.080695741 -0.028623322 1.0600001 4285624681
0.082633369 -0.028596321 1.059 4285558888
0.084567189 -0.028569318 1.0580001 4285493093
0.086415373 -0.028515311 1.056 4285427300
0.088423416 -0.028515311 1.056 4285427298
0.090431467 -0.028515311 1.056 4285427298
0.09243951 -0.028515311 1.056 4285493091
0.094536997 -0.028542314 1.057 4285558884
0.096546948 -0.028542314 1.057 4285427300
0.098277166 -0.028461304 1.054 4285427300
0.10028141 -0.028461304 1.054 4285361507
0.10228565 -0.028461304 1.054 4285361507
0.10438884 -0.028488308 1.0550001 4285361505
0.10639499 -0.028488308 1.0550001 4285361505
0.10850389 -0.028515311 1.056 4285427298
0.11061658 -0.028542314 1.057 4285493091
0.11262653 -0.028542314 1.057 4285558884
0.11463648 -0.028542314 1.057 4285558884
0.11675678 -0.028569318 1.0580001 4285624677
0.11876863 -0.028569318 1.0580001 4285624677
0.12066633 -0.028542314 1.057 4285690472
0.12256021 -0.028515311 1.056 4285756265
0.12456825 -0.028515311 1.056 4285756265
0.1265763 -0.028515311 1.056 4285822058
0.12858436 -0.028515311 1.056 4285624679
0.13059241 -0.028515311 1.056 4285493093
0.13272601 -0.028542314 1.057 4285559399
0.13460849 -0.028515311 1.056 4285559399
0.13648716 -0.028488308 1.0550001 4285559147
0.13849331 -0.028488308 1.0550001 4285756526
0.14103216 -0.028596321 1.059 4285625198
0.14345114 -0.028677329 1.062 4285230440
0.14670339 -0.028920358 1.0710001 4284441694
0.14998989 -0.029163387 1.08 4284507487
0.15232512 -0.029217392 1.082 4284508000
0.15452529 -0.029244397 1.0830001 4284573793
0.15672927 -0.029271398 1.0840001 4284639586
0.15879056 -0.029271398 1.0840001 4284771172
0.16085184 -0.029271398 1.0840001 4284706149
0.16276285 -0.029244397 1.0830001 4284771942
0.16482224 -0.029244397 1.0830001 4284902758
0.16688162 -0.029244397 1.0830001 4284968551
0.16894102 -0.029244397 1.0830001 4285034344
0.17100041 -0.029244397 1.0830001 4285100137
0.17305979 -0.029244397 1.0830001 4285165930
0.17495747 -0.029217392 1.082 4285165930
0.17701496 -0.029217392 1.082 4285165930
0.17907245 -0.029217392 1.082 4285165930
0.18129735 -0.029244397 1.0830001 4285165676
0.18335673 -0.029244397 1.0830001 4285165676
0.18541612 -0.029244397 1.0830001 4285165676
0.18747552 -0.029244397 1.0830001 4285231469
0.18935989 -0.029217392 1.082 4285231469
0.19124046 -0.029190389 1.0810001 4285297262
0.19329605 -0.029190389 1.0810001 4285297262
0.19535165 -0.029190389 1.0810001 4285363055
0.19758983 -0.029217392 1.082 4285297516
0.19983184 -0.029244397 1.0830001 4285231723
-0.37818867 -0.027285406 1.087 4285626481
-0.37646767 -0.027310507 1.0880001 4285692274
-0.37439877 -0.027310507 1.0880001 4285758067
-0.37267211 -0.027335608 1.0890001 4285758067
-0.3706013 -0.027335608 1.0890001 4285692274
-0.36886892 -0.027360711 1.09 4285692274
-0.36679623 -0.027360711 1.09 4285626481
-0.36438891 -0.027335608 1.0890001 4285692020
-0.3623181 -0.027335608 1.0890001 4285626227
-0.36024731 -0.027335608 1.0890001 4285626227
-0.3581765 -0.027335608 1.0890001 4285560434
-0.35643274 -0.027360711 1.09 4285560434
-0.35436001 -0.027360711 1.09 4285560434
-0.35261053 -0.027385812 1.0910001 4285626227
-0.35053593 -0.027385812 1.0910001 4285626227
-0.34814191 -0.027360711 1.09 4285494641
-0.34575173 -0.027335608 1.0890001 4285494641
-0.34368092 -0.027335608 1.0890001 4285494641
-0.34161013 -0.027335608 1.0890001 4285428848
-0.33922753 -0.027310507 1.0880001 4285363055
-0.33715865 -0.027310507 1.0880001 4285363055
-0.33508974 -0.027310507 1.0880001 4285297262
-0.33302084 -0.027310507 1.0880001 4285297262
-0.3306478 -0.027285406 1.087 4285297003
-0.3285808 -0.027285406 1.087 4285297003
-0.32621342 -0.027260303 1.0860001 4285428074
-0.32384983 -0.027235202 1.085 4285296488
-0.32089692 -0.027159898 1.082 4285427561
-0.31736603 -0.027034389 1.077 4285624940
-0.31209755 -0.026758272 1.0660001 4285756267
-0.30832523 -0.026607662 1.0600001 4285822060
-0.30602065 -0.026582561 1.059 4285887081
-0.30371982 -0.02655746 1.0580001 4285887081
-0.30142277 -0.026532358 1.057 4285887335
-0.29969612 -0.02655746 1.0580001 4285953128
-0.29740289 -0.026532358 1.057 4285953128
-0.29511347 -0.026507257 1.056 4285953128
-0.293383 -0.026532358 1.057 4285953127
-0.29109737 -0.026507257 1.056 4285953127
-0.28936309 -0.026532358 1.057 4285953127
-0.28735316 -0.026532358 1.057 4285887334
-0.28561315 -0.02655746 1.0580001 4285887334
-0.28360131 -0.02655746 1.0580001 4286018920
-0.28158945 -0.02655746 1.0580001 4286018920
-0.27957761 -0.02655746 1.0580001 4285887334
-0.27756575 -0.02655746 1.0580001 4285887334
-0.2760748 -0.026607662 1.0600001 4285887334
-0.27431768 -0.026632763 1.0610001 4285755748
-0.27230012 -0.026632763 1.0610001 4285821541
-0.27028257 -0.026632763 1.0610001 4285887334
-0.26801217 -0.026607662 1.0600001 4285887334
-0.26599652 -0.026607662 1.0600001 4285821541
-0.26422992 -0.026632763 1.0610001 4285821541
-0.26245952 -0.026657866 1.062 4285821541
-0.26044005 -0.026657866 1.062 4285887334
-0.25842059 -0.026657866 1.062 4285953128
-0.25615969 -0.026632763 1.0610001 4285953128
-0.25390261 -0.026607662 1.0600001 4285822058
-0.25188696 -0.026607662 1.0600001 4285822058
-0.24963559 -0.026582561 1.059 4285756265
-0.24785566 -0.026607662 1.0600001 4285756265
-0.24584001 -0.026607662 1.0600001 4285756778
-0.24405438 -0.026632763 1.0610001 4285822571
-0.24226494 -0.026657866 1.062 4285822571
-0.24047172 -0.026682967 1.0630001 4285822571
-0.23845036 -0.026682967 1.0630001 4285822060
-0.23642901 -0.026682967 1.0630001 4285756267
-0.23440765 -0.026682967 1.0630001 4285756267
-0.23216766 -0.026657866 1.062 4285756267
-0.23014821 -0.026657866 1.062 4286018669
-0.22812876 -0.026657866 1.062 4286150255
-0.2261093 -0.026657866 1.062 4285427300
-0.22408985 -0.026657866 1.062 4285690472
-0.22207038 -0.026657866 1.062 4285822058
-0.22025815 -0.026682967 1.0630001 4285756265
-0.21823679 -0.026682967 1.0630001 4285756265
-0.21601202 -0.026657866 1.062 4285887851
-0.21379106 -0.026632763 1.0610001 4285953644
-0.2117735 -0.026632763 1.0610001 4285953644
-0.20975594 -0.026632763 1.0610001 4285822058
-0.2079342 -0.026657866 1.062 4285756265
-0.20610864 -0.026682967 1.0630001 4285756265
-0.20427926 -0.026708068 1.064 4285822058
-0.2024461 -0.026733171 1.0650001 4285887851
-0.20004457 -0.026682967 1.0630001 4285887851
-0.19802321 -0.026682967 1.0630001 4285822058
-0.19581746 -0.026657866 1.062 4285822058
-0.19361551 -0.026632763 1.0610001 4285821288
-0.19177856 -0.026657866 1.062 4285887081
-0.18993779 -0.026682967 1.0630001 4285887081
-0.1880932 -0.026708068 1.064 4285887081
-0.18606994 -0.026708068 1.064 4285821288
-0.18387371 -0.026682967 1.0630001 4285755495
-0.18168128 -0.026657866 1.062 4285755495
-0.17966181 -0.026657866 1.062 4285755495
-0.17764236 -0.026657866 1.062 4286150507
-0.17578828 -0.026682967 1.0630001 4286084714
-0.17376693 -0.026682967 1.0630001 4285953128
-0.17190713 -0.026708068 1.064 4285755749
-0.16988386 -0.026708068 1.064 4285821542
-0.1678606 -0.026708068 1.064 4286018921
-0.1656815 -0.026682967 1.0630001 4285887335
-0.16366014 -0.026682967 1.0630001 4285689956
-0.16163878 -0.026682967 1.0630001 4285887851
-0.15946725 -0.026657866 1.062 4285887853
-0.15759607 -0.026682967 1.0630001 4285690474
-0.15572105 -0.026708068 1.064 4285822060
-0.15384226 -0.026733171 1.0650001 4285624681
-0.15181708 -0.026733171 1.0650001 4285690474
-0.14993256 -0.026758272 1.0660001 4285624681
-0.14790551 -0.026758272 1.0660001 4285953646
-0.14587845 -0.026758272 1.0660001 4285887853
-0.14385138 -0.026758272 1.0660001 4285822060
-0.14169128 -0.026733171 1.0650001 4285690474
-0.13953498 -0.026708068 1.064 4285624681
-0.13764097 -0.026733171 1.0650001 4285558888
-0.1356158 -0.026733171 1.0650001 4285558888
-0.13371608 -0.026758272 1.0660001 4285624681
-0.13156548 -0.026733171 1.0650001 4285624681
-0.12954032 -0.026733171 1.0650001 4285427300
-0.12751517 -0.026733171 1.0650001 4285493093
-0.12548999 -0.026733171 1.0650001 4285361509
-0.12358077 -0.026758272 1.0660001 4285690474
-0.1215537 -0.026758272 1.0660001 4285822060
-0.11952665 -0.026758272 1.0660001 4285690474
-0.11738935 -0.026733171 1.0650001 4285887599
-0.11525587 -0.026708068 1.064 4285690220
-0.11312619 -0.026682967 1.0630001 4285558634
-0.11110483 -0.026682967 1.0630001 4285492841
-0.10898086 -0.026657866 1.062 4285756267
-0.1069614 -0.026657866 1.062 4285953646
-0.10504076 -0.026682967 1.0630001 4285822060
-0.10321323 -0.026733171 1.0650001 4285690474
-0.10118806 -0.026733171 1.0650001 4285690472
-0.099162906 -0.026733171 1.0650001 4285493093
-0.097046539 -0.026708068 1.064 4285625190
-0.095023274 -0.026708068 1.064 4285625190
-0.092912614 -0.026682967 1.0630001 4285690472
-0.091062263 -0.026733171 1.0650001 4285756265
-0.089120708 -0.026758272 1.0660001 4285756265
-0.087093651 -0.026758272 1.0660001 4285756265
-0.085066587 -0.026758272 1.0660001 4285624681
-0.083039522 -0.026758272 1.0660001 4285558888
-0.080936462 -0.026733171 1.0650001 4285558886
-0.078540832 -0.026607662 1.0600001 4285756265
-0.076525174 -0.026607662 1.0600001 4285821288
-0.074579813 -0.026632763 1.0610001 4285689702
-0.072562262 -0.026632763 1.0610001 4285755749
-0.070677683 -0.026682967 1.0630001 4285887335
-0.068720907 -0.026708068 1.064 4285821541
-0.06669765 -0.026708068 1.064 4285624162
-0.064674392 -0.026708068 1.064 4285690470
-0.062592253 -0.026682967 1.0630001 4285624677
-0.060513914 -0.026657866 1.062 4285558884
-0.058439381 -0.026632763 1.0610001 4285361505
-0.056421824 -0.026632763 1.0610001 4285558884
-0.05440427 -0.026632763 1.0610001 4285624677
-0.052436091 -0.026657866 1.062 4285361505
-0.050464105 -0.026682967 1.0630001 4285493091
-0.048488319 -0.026708068 1.064 4285558884
-0.04642139 -0.026682967 1.0630001 4285558884
-0.044400033 -0.026682967 1.0630001 4285624679
-0.042378675 -0.026682967 1.0630001 4285624679
-0.040357318 -0.026682967 1.0630001 4285558888
-0.03833596 -0.026682967 1.0630001 4285558888
-0.036280442 -0.026657866 1.062 4285558634
-0.034260988 -0.026657866 1.062 4285624681
-0.032241531 -0.026657866 1.062 4285558886
-0.030193618 -0.026632763 1.0610001 4285624679
-0.028176062 -0.026632763 1.0610001 4285624679
-0.026158508 -0.026632763 1.0610001 4285558886
-0.024140954 -0.026632763 1.0610001 4285558886
-0.022165101 -0.026682967 1.0630001 4285624679
-0.020181647 -0.026733171 1.0650001 4285624677
-0.018173533 -0.026758272 1.0660001 4285493091
-0.016131325 -0.026733171 1.0650001 4285558884
-0.014066428 -0.026657866 1.062 4285690470
-0.012035628 -0.026632763 1.0610001 4285953642
-0.0099991895 -0.026582561 1.059 4285164126
-0.0079854382 -0.026582561 1.059 4285164128
-0.0059773261 -0.026607662 1.0600001 4285953644
-0.0039691478 -0.026657866 1.062 4285690472
-0.0019515279 -0.026682967 1.0630001 4285558886
6.9763919e-05 -0.026657866 1.062 4285558888
0.0020892199 -0.026657866 1.062 4285624681
0.0041086758 -0.026657866 1.062 4285624681
0.0061339019 -0.026682967 1.0630001 4285624681
0.0081475871 -0.026657866 1.062 4285558888
0.010176617 -0.026682967 1.0630001 4285558888
0.012220925 -0.026733171 1.0650001 4285558888
0.014246086 -0.026733171 1.0650001 4285558888
0.016286524 -0.026758272 1.0660001 4285361507
0.018330766 -0.026783373 1.067 4285427300
0.020359728 -0.026783373 1.067 4285558886
0.02236771 -0.026758272 1.0660001 4285624679
0.024371887 -0.026733171 1.0650001 4285624679
0.026372263 -0.026708068 1.064 4285558886
0.028395522 -0.026708068 1.064 4285427300
0.030418782 -0.026708068 1.064 4285361507
0.032442041 -0.026708068 1.064 4285427300
0.034432907 -0.026682967 1.0630001 4285427300
0.036454264 -0.026682967 1.0630001 4285493093
0.038403228 -0.026632763 1.0610001 4285361507
0.040382691 -0.026607662 1.0600001 4285229921
0.042398341 -0.026607662 1.0600001 4285427300
0.044413995 -0.026607662 1.0600001 4285427300
0.046429649 -0.026607662 1.0600001 4284966749
0.048491001 -0.026632763 1.0610001 4285295714
0.050508555 -0.026632763 1.0610001 4285427300
0.052575618 -0.026657866 1.062 4285361507
0.054595072 -0.026657866 1.062 4285558886
0.056614529 -0.026657866 1.062 4285493093
0.058689196 -0.026682967 1.0630001 4285493093
0.060710553 -0.026682967 1.0630001 4285756265
0.062731914 -0.026682967 1.0630001 4285295714
0.064692356 -0.026657866 1.062 4285493091
0.066711806 -0.026657866 1.062 4285493091
0.068731263 -0.026657866 1.062 4285558884
0.070684098 -0.026632763 1.0610001 4285624677
0.072633132 -0.026607662 1.0600001 4285624679
0.074789636 -0.026657866 1.062 4285624679
0.076809086 -0.026657866 1.062 4285558888
0.078902774 -0.026682967 1.0630001 4285558888
0.080924131 -0.026682967 1.0630001 4285624681
0.082867458 -0.026657866 1.062 4285558888
0.084806979 -0.026632763 1.0610001 4285558886
0.08657904 -0.02655746 1.0580001 4285493093
0.088507153 -0.026532358 1.057 4285493091
0.090517104 -0.026532358 1.057 4285493091
0.092527047 -0.026532358 1.057 4285493091
0.094626442 -0.02655746 1.0580001 4285493091
0.096546948 -0.026532358 1.057 4285427300
0.098556891 -0.026532358 1.057 4285427300
0.10037655 -0.026482156 1.0550001 4285427300
0.1023827 -0.026482156 1.0550001 4285361507
0.10438884 -0.026482156 1.0550001 4285361505
0.10659669 -0.026532358 1.057 4285361505
0.10860664 -0.026532358 1.057 4285493091
0.11072124 -0.02655746 1.0580001 4285558884
0.11273309 -0.02655746 1.0580001 4285427298
0.11485339 -0.026582561 1.059 4285493091
0.11686714 -0.026582561 1.059 4285558884
0.11888089 -0.026582561 1.059 4285558884
0.12078048 -0.02655746 1.0580001 4285558886
0.12267628 -0.026532358 1.057 4285624679
0.12456825 -0.026507257 1.056 4285690472
0.1265763 -0.026507257 1.056 4285756265
0.12858436 -0.026507257 1.056 4285822058
