# .PCD v0.7 - Point Cloud Data file format
VERSION 0.7
FIELDS x y z intensity
SIZE 4 4 4 4
TYPE F F F F
COUNT 1 1 1 1
WIDTH 1069
HEIGHT 1
VIEWPOINT 0 0 0 1 0 0 0
POINTS 1069
DATA ascii
0.0023454542 0.18431453 1.1922503 0.077935591
0.010281501 0.18433386 1.1923752 0.077935591
0.018213006 0.18428844 1.1920835 0.077935591
0.025368633 0.18426257 1.1924616 0.077935591
0.031624712 0.17981675 1.1850001 0.077935591
0.031624712 0.18207012 1.1850001 0.077935591
0.029371366 0.18544823 1.1850001 0.077935591
-0.053407352 0.1065121 1.223 0.12927537
-0.046482418 0.10662822 1.2243334 0.12927537
-0.038300715 0.10653387 1.22325 0.12927537
-0.030168353 0.10657015 1.2236667 0.12927537
-0.022019088 0.10653388 1.22325 0.12927537
-0.013865106 0.10645404 1.2223333 0.12927537
-0.045636419 0.11324199 1.2329376 0.12927537
-0.037392642 0.11312451 1.2316668 0.12927537
-0.030394197 0.11323228 1.2328334 0.12927537
-0.022191502 0.11323678 1.2328752 0.12927537
-0.013975079 0.11315718 1.232 0.12927537
-0.0057755304 0.11313323 1.2317499 0.12927537
-0.053658746 0.12246057 1.2364286 0.12927537
-0.046641286 0.12118334 1.23625 0.12927537
-0.043951854 0.12282201 1.235 0.12927537
-0.037483558 0.1216156 1.2346666 0.12927537
-0.030445563 0.12163525 1.2348751 0.12927537
-0.024068421 0.1219546 1.2347144 0.12927537
-0.019671023 0.12133496 1.2366 0.12927537
-0.014810516 0.12140351 1.2365 0.12927537
-0.012440662 0.12239713 1.2346667 0.12927537
-0.0057880594 0.12161063 1.234625 0.12927537
-0.030473059 0.12174629 1.2360001 0.12927537
-0.0057946239 0.12174629 1.2360001 0.12927537
-0.053837892 0.12963536 1.2328334 0.074235804
-0.045616366 0.12958868 1.2323751 0.074235804
-0.037407029 0.12956542 1.2321668 0.074235804
-0.030629657 0.12941082 1.2337273 0.074235804
-0.022188656 0.1284585 1.2327501 0.074235804
-0.013769126 0.12928785 1.2325455 0.074235804
-0.0057810186 0.12851076 1.23325 0.074235804
-0.029383874 0.13516574 1.2298 0.074235804
-0.02215624 0.13596512 1.2310001 0.074235804
-0.014548078 0.1364533 1.230875 0.074235804
-0.0054373229 0.13596512 1.2310002 0.074235804
-0.053648803 0.13619156 1.2285001 0.074235804
-0.046001907 0.13611139 1.2292858 0.074235804
-0.038695522 0.13594742 1.2284001 0.074235804
-0.037629873 0.13870992 1.2266668 0.074235804
-0.030707568 0.13854679 1.2266001 0.074235804
-0.053583298 0.13952556 1.2270001 0.074235804
-0.046583656 0.13952556 1.2270001 0.074235804
-0.022084922 0.13952556 1.2270001 0.074235804
-0.012752069 0.13952556 1.2270001 0.074235804
-0.0080856439 0.13952556 1.2270001 0.074235804
-0.046435118 0.14488979 1.2230834 0.074235804
-0.038324308 0.14500748 1.2240624 0.074235804
-0.030177519 0.14499958 1.224 0.074235804
-0.022000497 0.14479223 1.22225 0.074235804
-0.013874874 0.14490214 1.2231668 0.074235804
-0.0060664313 0.14441685 1.2232857 0.074235804
-0.0033969237 0.1478879 1.2190001 0.074235804
-0.046181545 0.15335433 1.2164165 0.074235804
-0.038364332 0.15420049 1.2167693 0.074235804
-0.037068654 0.15045236 1.2210001 0.074235804
-0.029976176 0.15327895 1.2158334 0.074235804
-0.022125106 0.15358257 1.2164 0.074235804
-0.018479073 0.15032914 1.22 0.074235804
-0.01385881 0.15053451 1.2216667 0.074235804
-0.0091994656 0.15032914 1.22 0.074235804
0.0016147442 0.10393181 1.2110001 0.083854824
0.0046889973 0.10440175 1.212 0.083854824
0.010225616 0.10376146 1.2126 0.083854824
0.016980674 0.10401764 1.212 0.083854824
0.020804645 0.10316421 1.2110001 0.083854824
0.027313324 0.10387439 1.2103333 0.083854824
-0.0057322839 0.10646856 1.2225001 0.083854824
8.0274491e-05 0.10642501 1.222 0.083854824
0.0093904398 0.10659919 1.2240001 0.083854824
0.017908091 0.1065121 1.223 0.083854824
0.024479181 0.10642501 1.222 0.083854824
0.043034531 0.10633792 1.221 0.083854824
0.048891421 0.10645404 1.2223334 0.083854824
0.0024257395 0.11319426 1.2324167 0.083854824
0.0094567779 0.11322424 1.2327501 0.083854824
0.017647635 0.11313252 1.23175 0.083854824
0.025808208 0.11329006 1.23 0.083854824
0.025745947 0.10919368 1.2270001 0.083854824
0.034033109 0.11309192 1.2313125 0.083854824
0.04224721 0.11314961 1.2319167 0.083854824
0.050422534 0.11309795 1.2313751 0.083854824
0.0028992393 0.12117811 1.235 0.083854824
0.0098034823 0.12157744 1.2342857 0.083854824
0.017658185 0.12140092 1.2325001 0.083854824
0.025855737 0.12137418 1.2322223 0.083854824
0.034058169 0.12137676 1.2322501 0.083854824
0.042341571 0.12161475 1.2346667 0.083854824
0.0018439397 0.12233388 1.2360001 0.083854824
0.0083073396 0.12174629 1.2360001 0.083854824
0.0024247433 0.12931593 1.2328182 0.075469904
0.0094507011 0.12954126 1.2319167 0.075469904
0.017613977 0.12928765 1.2295001 0.075469904
0.025807625 0.12933128 1.2299167 0.075469904
0.033904687 0.12905687 1.2295334 0.075469904
0.042227682 0.12947842 1.2313334 0.075469904
0.0024181637 0.13700218 1.2294999 0.075469904
0.035078801 0.13252591 1.2270001 0.075469904
0.0088387914 0.13558029 1.2282501 0.075469904
0.017241562 0.13723993 1.2255455 0.075469904
0.021096701 0.13496903 1.228 0.075469904
0.026242727 0.13594706 1.2284001 0.075469904
0.031223794 0.13578404 1.2283335 0.075469904
0.034800284 0.13763547 1.2263334 0.075469904
0.041283559 0.13791324 1.2265 0.075469904
0.043681543 0.13578404 1.2283335 0.075469904
0.0098766498 0.13854679 1.2266001 0.075469904
0.025147857 0.13885698 1.2262501 0.075469904
0.0024067557 0.14490953 1.2232502 0.075469904
0.0093846926 0.14491996 1.2233332 0.075469904
0.017178565 0.14429136 1.2222143 0.075469904
0.025650995 0.14365414 1.2224445 0.075469904
0.033803865 0.14372919 1.2230831 0.075469904
0.042166583 0.14416033 1.2228 0.075469904
0.049815573 0.14455502 1.2222 0.075469904
0.019783083 0.1478879 1.2190001 0.075469904
0.025557103 0.14776659 1.2180001 0.075469904
0.033678219 0.14782724 1.2185001 0.075469904
0.040645089 0.1478879 1.2190001 0.075469904
0.0023913456 0.15322682 1.2154168 0.075469904
0.010484125 0.15326846 1.2157501 0.075469904
0.01856727 0.15321608 1.2153333 0.075469904
0.025481863 0.15195116 1.2144445 0.075469904
0.033805344 0.15291108 1.2147334 0.075469904
0.041684065 0.15323882 1.2155 0.075469904
0.035817556 0.15862757 1.2125001 0.075469904
0.041598324 0.15869299 1.2130001 0.075469904
-0.046135999 0.18500756 1.1522727 0.11094974
-0.05323324 0.18574008 1.1506363 0.11094974
-0.053830482 0.19312333 1.1516923 0.11094974
-0.044897676 0.19261073 1.1536667 0.11094974
-0.038525123 0.19271858 1.1505715 0.11094974
-0.050504554 0.19418541 1.1565001 0.11094974
-0.047226708 0.19426936 1.1570001 0.11094974
-0.063217826 0.20100108 1.15775 0.11094974
-0.056632951 0.19586144 1.1470001 0.11094974
-0.047103778 0.19705676 1.154 0.11094974
-0.035912611 0.19586144 1.1470001 0.11094974
-0.029162141 0.20147496 1.1605 0.11094974
-0.060550448 0.2011521 1.1523334 0.11094974
-0.058814038 0.1991331 1.1470001 0.11094974
-0.054068979 0.20020449 1.14275 0.11094974
-0.046468947 0.20097873 1.1438668 0.11094974
-0.038898796 0.19934097 1.1466252 0.11094974
-0.03190551 0.20066023 1.1520001 0.11094974
-0.037528567 0.20289883 1.1498001 0.11094974
-0.061754338 0.20822999 1.16125 0.11094974
-0.051906202 0.20099302 1.1390001 0.11094974
-0.063709736 0.21088344 1.1667501 0.11094974
-0.059121698 0.20675322 1.1530001 0.11094974
-0.039170057 0.20914561 1.1524547 0.11094974
-0.035118069 0.2096246 1.1567501 0.11094974
-0.031915292 0.20917176 1.1603334 0.11094974
-0.053060036 0.20731452 1.1452 0.11094974
-0.047766834 0.20616603 1.1436667 0.11094974
-0.045573767 0.21030475 1.151 0.11094974
-0.053803496 0.21113756 1.1518 0.11094974
-0.06163878 0.21777013 1.1683335 0.11094974
-0.054619804 0.21772856 1.1589092 0.11094974
-0.029390043 0.21545744 1.1596365 0.11094974
-0.051515363 0.21470502 1.1545 0.11094974
-0.045301694 0.21620023 1.1546668 0.11094974
-0.046486538 0.21770574 1.1568334 0.11094974
-0.038501214 0.21786977 1.1526667 0.11094974
-0.035095301 0.21498397 1.156 0.11094974
-0.030629251 0.2192048 1.1534287 0.11094974
-0.053852186 0.22186612 1.1575 0.11094974
-0.047185414 0.2215786 1.156 0.11094974
-0.045158047 0.22317211 1.1510001 0.11094974
-0.062672883 0.22598934 1.1511111 0.11094974
-0.054043811 0.22385618 1.1515714 0.11094974
-0.038599033 0.2231914 1.1481428 0.11094974
-0.053761691 0.22673608 1.1455715 0.11094974
-0.046822153 0.22655065 1.1441112 0.11094974
-0.060423739 0.22793297 1.1465 0.11094974
-0.045187309 0.1788307 1.1668 0.086060025
-0.04241119 0.17845106 1.176 0.086060025
-0.040243279 0.17875454 1.1780001 0.086060025
-0.037068233 0.179665 1.184 0.086060025
-0.021783767 0.18480614 1.1922858 0.086060025
-0.013543707 0.18457316 1.1939168 0.086060025
-0.0055895317 0.18427502 1.1919999 0.086060025
-0.038890779 0.17991908 1.171 0.086060025
-0.035975721 0.18319488 1.1850001 0.086060025
-0.031814236 0.18563949 1.1838335 0.086060025
-0.048618667 0.18105698 1.164 0.086060025
-0.04522071 0.18074588 1.1620001 0.086060025
-0.041942354 0.18090142 1.1630001 0.086060025
-0.038355183 0.18210714 1.166 0.086060025
-0.043888111 0.18201081 1.156 0.086060025
-0.037366699 0.18520185 1.1582859 0.086060025
-0.035702489 0.18515979 1.176 0.086060025
-0.033466253 0.18627791 1.176 0.086060025
-0.040045202 0.18637435 1.1538571 0.086060025
-0.027053341 0.18946758 1.189 0.086060025
-0.020548599 0.1908399 1.18875 0.086060025
-0.013777564 0.19154504 1.189625 0.086060025
-0.0089657092 0.18946758 1.189 0.086060025
-0.0053304532 0.1924105 1.1848665 0.086060025
-0.02857695 0.19116122 1.182 0.086060025
-0.022458157 0.19373836 1.1851667 0.086060025
-0.031100724 0.19165757 1.1592857 0.086060025
-0.027455555 0.19377591 1.1740001 0.086060025
-0.013904634 0.19530387 1.1860001 0.086060025
-0.024531743 0.19530444 1.1765001 0.086060025
-0.032213803 0.19494326 1.15125 0.086060025
-0.028784221 0.19602953 1.1675 0.086060025
-0.020708313 0.19898483 1.1817501 0.086060025
-0.014541649 0.19971514 1.18275 0.086060025
-0.0059135836 0.19870983 1.1812224 0.086060025
-0.026547085 0.20034114 1.16675 0.086060025
-0.023115139 0.20158517 1.1756251 0.086060025
-0.0050411075 0.20233607 1.1774286 0.086060025
-0.014492314 0.20352456 1.17875 0.086060025
-0.021520298 0.20833604 1.175 0.086060025
-0.014458627 0.20862536 1.1759375 0.086060025
-0.0055010333 0.20814948 1.1732502 0.086060025
-0.02764977 0.20917355 1.1665002 0.086060025
-0.023835268 0.21142232 1.1697501 0.086060025
-0.021361245 0.21505515 1.1663333 0.086060025
-0.014257579 0.21517684 1.1679093 0.086060025
-0.015523402 0.21350224 1.1720001 0.086060025
-0.0049972045 0.21570458 1.1675714 0.086060025
-0.02230458 0.2186425 1.1604286 0.086060025
-0.014269595 0.21915329 1.1606251 0.086060025
-0.029006528 0.22515865 1.1505295 0.078681484
-0.02119451 0.22326802 1.1571667 0.078681484
-0.022595545 0.22628169 1.1538334 0.078681484
-0.03765722 0.22670524 1.1448891 0.078681484
-0.032640979 0.2285779 1.1470001 0.078681484
-0.02148675 0.23082232 1.1504285 0.078681484
-0.013928001 0.23236813 1.1506667 0.078681484
-0.054261494 0.23321307 1.143 0.078681484
-0.046697501 0.23343086 1.1440628 0.078681484
-0.038043402 0.23372373 1.1455002 0.078681484
-0.029313868 0.23358175 1.1448126 0.078681484
-0.021978799 0.23508467 1.1455001 0.078681484
-0.017373361 0.23512119 1.1470001 0.078681484
-0.013824926 0.24055624 1.1440556 0.078681484
-0.0055797193 0.24011603 1.1438001 0.078681484
-0.046597946 0.24161613 1.1416249 0.078681484
-0.038181569 0.24095911 1.142077 0.078681484
-0.030076187 0.24076971 1.1407001 0.078681484
-0.022714844 0.24158885 1.1415 0.078681484
-0.03671281 0.2440962 1.138 0.078681484
-0.031316154 0.24420345 1.1385 0.078681484
-0.016169248 0.24431069 1.1390001 0.078681484
-0.0053398679 0.24431069 1.1390001 0.078681484
-0.045806505 0.24851054 1.142125 0.078681484
-0.037747476 0.2491754 1.1365001 0.078681484
-0.030154176 0.24895345 1.1355001 0.078681484
-0.022585381 0.24881688 1.1348751 0.078681484
-0.013955609 0.24888568 1.1351876 0.078681484
-0.0055415491 0.24905095 1.1362667 0.078681484
-0.0020947256 0.25124875 1.141 0.078681484
-0.046893623 0.25608671 1.1400001 0.078681484
-0.0438748 0.25605693 1.1366667 0.078681484
-0.038376626 0.2547006 1.1338333 0.078681484
-0.03006155 0.25357208 1.1320001 0.078681484
-0.023603853 0.25357208 1.1320001 0.078681484
-0.022327432 0.25742599 1.1279445 0.078681484
-0.014109405 0.25748929 1.1282222 0.078681484
-0.011764746 0.25357208 1.1320001 0.078681484
-0.0039279889 0.25596523 1.1344286 0.078681484
-0.03716249 0.2585434 1.1282144 0.078681484
-0.029935883 0.25786385 1.12725 0.078681484
-0.0063595143 0.25801697 1.1279168 0.078681484
-0.046053592 0.25916526 1.1282501 0.078681484
-0.0036704314 0.26429895 1.1261251 0.078681484
-0.046520449 0.26289433 1.1240001 0.078681484
-0.04053586 0.26246688 1.1240001 0.078681484
-0.037231959 0.26497763 1.1210716 0.078681484
-0.030092709 0.26516989 1.1208463 0.078681484
-0.024505716 0.26246688 1.1240001 0.078681484
-0.021992635 0.26528189 1.1204287 0.078681484
-0.014076327 0.26521409 1.1201429 0.078681484
-0.011686323 0.26258361 1.1245 0.078681484
-0.04548458 0.26633009 1.1214547 0.078681484
-0.006315446 0.26581573 1.1201111 0.078681484
0.026133986 0.19392185 1.1420001 0.35580415
0.027995743 0.19179973 1.1295 0.35580415
0.031339929 0.19471976 1.1340001 0.35580415
0.026580233 0.20165189 1.1615001 0.35580415
0.02835514 0.19969614 1.1440001 0.35580415
0.035168655 0.19418657 1.1185 0.35580415
0.028578212 0.20127101 1.153 0.35580415
0.031191478 0.20073974 1.1416668 0.35580415
0.033556644 0.20226093 1.136 0.35580415
0.036000732 0.20012106 1.128 0.35580415
0.024075594 0.2095665 1.1687 0.35580415
0.027683137 0.20827647 1.1615001 0.35580415
0.030735128 0.20760755 1.1516668 0.35580415
0.038614772 0.20084015 1.126 0.35580415
0.028392319 0.20976247 1.1455001 0.35580415
0.033166762 0.20820592 1.1350001 0.35580415
0.034430925 0.2071635 1.1293334 0.35580415
0.02315169 0.21654713 1.1668 0.35580415
0.025061063 0.21780495 1.1593333 0.35580415
0.030570555 0.21194071 1.1455001 0.35580415
0.02764439 0.21704125 1.1506001 0.35580415
0.030503837 0.21473981 1.143 0.35580415
0.0310644 0.21577339 1.1370001 0.35580415
0.01996284 0.22051904 1.1620001 0.35580415
0.018263139 0.2255041 1.15925 0.35580415
0.023177097 0.22177027 1.1570001 0.35580415
0.026137792 0.21997902 1.1420001 0.35580415
0.020533329 0.22386049 1.1526667 0.35580415
0.026271293 0.22222818 1.148 0.35580415
0.028206425 0.2202924 1.138 0.35580415
0.030036803 0.2189423 1.1255 0.35580415
0.02008716 0.22624126 1.1440001 0.35580415
0.02544854 0.22309569 1.1357501 0.35580415
0.026088219 0.22284733 1.1400001 0.35580415
0.025214909 0.22424348 1.1252501 0.35580415
0.021666797 0.22736433 1.1355001 0.35580415
0.015523551 0.23457885 1.1605 0.35580415
0.018862294 0.23007329 1.1400001 0.35580415
0.017912267 0.23306988 1.1370001 0.35580415
0.020197775 0.23291318 1.1258 0.35580415
0.01648223 0.24130943 1.1505001 0.35580415
0.01747822 0.24103239 1.1440001 0.35580415
0.0027900713 0.19027559 1.1884 0.090098917
0.0079895277 0.19055775 1.18875 0.090098917
0.010974932 0.19306771 1.1856667 0.090098917
0.017880248 0.19290043 1.1851 0.090098917
0.019279987 0.18930824 1.1880001 0.090098917
0.02449641 0.1903712 1.1890001 0.090098917
0.0020115047 0.19409643 1.1857144 0.090098917
0.024807442 0.1938546 1.1822859 0.090098917
0.024686314 0.19530444 1.1765001 0.090098917
0.0026466441 0.19892244 1.1818572 0.090098917
0.0098150941 0.19880259 1.1817778 0.090098917
0.018049881 0.19949488 1.1814446 0.090098917
0.026797634 0.19550622 1.171 0.090098917
0.022991978 0.20021173 1.17575 0.090098917
0.0018686134 0.20239505 1.1774 0.090098917
0.01063427 0.2023602 1.1775714 0.090098917
0.024514953 0.20172662 1.1683334 0.090098917
0.017991953 0.20333749 1.1776668 0.090098917
0.0018125599 0.20752539 1.1732222 0.090098917
0.010722918 0.20782612 1.1738461 0.090098917
0.017959164 0.20854878 1.1755 0.090098917
0.022420509 0.2051114 1.1750001 0.090098917
0.0037881341 0.20960885 1.171 0.090098917
0.0074993432 0.20960885 1.171 0.090098917
0.016798384 0.21359333 1.1725001 0.090098917
0.015396473 0.24906878 1.151 0.19202477
0.017310161 0.24194649 1.133 0.19202477
0.020684661 0.24087717 1.1213334 0.19202477
0.017310161 0.24840991 1.133 0.19202477
0.019310011 0.24323063 1.1240001 0.19202477
0.017470581 0.25071251 1.1435001 0.19202477
0.020253286 0.24937966 1.1255715 0.19202477
0.013161878 0.25256994 1.1470001 0.19202477
0.0011608095 0.25581148 1.1420001 0.19202477
0.013115978 0.25494939 1.143 0.19202477
0.015316213 0.25539359 1.145 0.19202477
0.018072672 0.25694984 1.1270001 0.19202477
0.013024178 0.25855875 1.1350001 0.19202477
0.015189135 0.25759351 1.1355001 0.19202477
0.026657153 0.2569266 1.1185001 0.19202477
0.0011577602 0.25947189 1.1390001 0.19202477
0.020889647 0.25790501 1.12275 0.19202477
0.0011553228 0.26302844 1.1356667 0.19202477
0.012989753 0.26218238 1.1320001 0.19202477
0.01549488 0.26388073 1.1264 0.19202477
0.012955328 0.26578006 1.1290001 0.19202477
0.018810377 0.26465419 1.1197001 0.19202477
0.025570894 0.2640276 1.1174546 0.19202477
0.0011496119 0.26726812 1.1307501 0.19202477
0.027589772 0.26718768 1.1131428 0.19202477
0.001360642 0.27135697 1.1271999 0.19202477
0.012918033 0.27250886 1.1257499 0.19202477
0.019568752 0.26785347 1.1144001 0.19202477
0.01499852 0.27355215 1.12125 0.19202477
0.018502353 0.27278468 1.1106365 0.19202477
0.026449431 0.26969063 1.1097502 0.19202477
0.035188247 0.26926535 1.108 0.19202477
0.012943853 0.27841568 1.128 0.19202477
0.011745081 0.28075919 1.1160001 0.19202477
0.011702985 0.28292468 1.1120001 0.19202477
0.0025131796 0.21687891 1.1738181 0.17723273
0.010784368 0.21572986 1.1732 0.17723273
0.018087627 0.21702912 1.1694 0.17723273
0.0090554329 0.21950929 1.1803334 0.17723273
-0.006548109 0.2192874 1.1613334 0.17723273
7.6924247e-05 0.22000028 1.171 0.17723273
0.0090554329 0.22175378 1.1803334 0.17723273
7.6924247e-05 0.22222702 1.171 0.17723273
0.0034257672 0.22279635 1.174 0.17723273
0.013502304 0.22553992 1.1766667 0.17723273
0.016333016 0.22383232 1.1658334 0.17723273
-0.014234835 0.22303805 1.1578751 0.17723273
-0.005210951 0.22526255 1.1591334 0.17723273
7.6283759e-05 0.22589411 1.1612501 0.17723273
-0.014193935 0.226779 1.1545001 0.17723273
0.013494655 0.22988462 1.176 0.17723273
-0.008709331 0.22797586 1.1550001 0.17723273
0.01557037 0.23085901 1.164 0.17723273
-0.0056164865 0.23296693 1.1514666 0.17723273
-0.0021240995 0.23057072 1.1570001 0.17723273
7.6135955e-05 0.23096929 1.159 0.17723273
0.015503486 0.23978114 1.159 0.17723273
-0.0021094126 0.23771605 1.149 0.17723273
7.5763703e-05 0.24153149 1.1533334 0.17723273
0.0033907508 0.24151042 1.1620001 0.17723273
0.013276629 0.24047121 1.1570001 0.17723273
0.013202041 0.24349719 1.1505001 0.17723273
0.0022741414 0.24575892 1.156 0.17723273
7.5019205e-05 0.24495418 1.1420001 0.17723273
0.0011644379 0.24940588 1.1441666 0.17723273
0.013192479 0.24878354 1.1496668 0.17723273
0.0022584035 0.24842416 1.148 0.17723273
0.050389737 -0.097228102 0.99866682 0.12407027
0.057673417 -0.096958831 0.99980003 0.12407027
0.059844874 -0.099064134 0.99800003 0.12407027
0.065538138 -0.099064134 0.99800003 0.12407027
0.073688693 -0.095692031 0.99977279 0.12407027
0.081980117 -0.095895343 0.99936855 0.12407027
0.089765616 -0.095208853 0.99940002 0.12407027
0.090791546 -0.097721063 0.99400002 0.12407027
0.066366524 -0.095830098 1.0019001 0.12407027
0.05022626 -0.093055911 1.006 0.12407027
0.058295503 -0.092977598 1.0040001 0.12407027
0.064977579 -0.092977606 1.0040001 0.12407027
0.08218798 -0.09205357 1.0043334 0.12407027
0.089868285 -0.092096344 1.0048001 0.12407027
0.058585342 -0.089602321 1.0090001 0.12407027
0.066233858 -0.08956866 1.0086251 0.12407027
0.073781036 -0.088838801 1.0069 0.12407027
0.081530206 -0.089513049 1.008 0.12407027
0.089688376 -0.089580208 1.0075555 0.12407027
0.057670474 -0.085343041 1.0154167 0.12407027
0.050759755 -0.073076569 1.006 0.080747746
0.058381647 -0.073040247 1.0055001 0.080747746
0.065964051 -0.072967611 1.0045 0.080747746
0.074304499 -0.072708882 1.0062001 0.080747746
0.082095191 -0.073730335 1.0150001 0.080747746
0.057797093 -0.069534324 1.0008889 0.080747746
0.065660208 -0.069780961 0.99987507 0.080747746
0.072920725 -0.069703884 1.0007143 0.080747746
0.081265435 -0.071075171 1.00475 0.080747746
0.058503903 -0.065886587 1.0005714 0.080747746
0.065636657 -0.065951772 0.99950004 0.080747746
0.073779196 -0.0658575 0.99966663 0.080747746
0.082443886 -0.064203545 0.99929416 0.080747746
0.09006048 -0.064447179 0.99935722 0.080747746
0.097864062 -0.06494616 0.99866676 0.080747746
0.066179611 -0.062661886 1.00775 0.080747746
0.073861457 -0.06267719 1.0080001 0.080747746
0.080573797 -0.060758989 1.008 0.080747746
0.090820186 -0.06024817 1.0062858 0.080747746
0.098572552 -0.060633149 1.005875 0.080747746
0.11842556 -0.099950247 0.98800004 0.1035929
0.11455201 -0.099849083 0.98700005 0.1035929
0.12293548 -0.099798501 0.98650002 0.1035929
0.12781925 -0.099950247 0.98800004 0.1035929
0.11091059 -0.099950247 0.98800004 0.1035929
0.097408012 -0.097721055 0.99399996 0.1035929
0.10605482 -0.097871184 0.99312502 0.1035929
0.11451726 -0.097219683 0.99211121 0.1035929
0.12149823 -0.096768282 0.99218184 0.1035929
0.12941492 -0.097928777 0.99200004 0.1035929
0.13901329 -0.09816955 0.99280006 0.1035929
0.10556444 -0.094063357 0.99964291 0.1035929
0.13041599 -0.093970194 0.99864292 0.1035929
0.13750091 -0.094152734 0.99826682 0.1035929
0.098386765 -0.093944199 1.0001001 0.1035929
0.11339018 -0.093404785 0.99838471 0.1035929
0.12243859 -0.092730135 0.99930012 0.1035929
0.096623428 -0.092160501 1.0055001 0.1035929
0.098447651 -0.088587672 1.0083847 0.1035929
0.10604124 -0.088260122 1.0066365 0.1035929
0.10877993 -0.090024084 1.003 0.1035929
0.11252025 -0.089964248 1.0023334 0.1035929
0.11472581 -0.086741954 1.0075384 0.1035929
0.12147432 -0.086585715 1.0074376 0.1035929
0.12403804 -0.090024084 1.003 0.1035929
0.13064736 -0.089979216 1.0025001 0.1035929
0.13768816 -0.089588776 1.0024 0.1035929
0.13007204 -0.086370826 1.0064002 0.1035929
0.10560712 -0.084304057 1.0132222 0.1035929
0.11258183 -0.083617792 1.0132 0.1035929
0.12226448 -0.083134338 1.0120001 0.1035929
0.088644959 -0.073560841 1.0126667 0.13969743
0.092345282 -0.073439777 1.011 0.13969743
0.09793511 -0.072988406 1.0091666 0.13969743
0.10570344 -0.071576394 1.0064 0.13969743
0.10793946 -0.073585056 1.013 0.13969743
0.11269777 -0.073548734 1.0125 0.13969743
0.11426282 -0.072045386 1.0076001 0.13969743
0.082478963 -0.069166623 1.0001668 0.13969743
0.090402603 -0.069798172 1.0001251 0.13969743
0.098285675 -0.069763161 1.0015714 0.13969743
0.11391632 -0.06930165 1.0012 0.13969743
0.12190288 -0.070496298 1.0073999 0.13969743
0.1058415 -0.068992481 1.0022501 0.13969743
0.12124725 -0.067832053 1.0020001 0.13969743
0.10547125 -0.064952053 0.99875003 0.13969743
0.11414205 -0.064717636 0.99881256 0.13969743
0.12262033 -0.063357279 1.0014287 0.13969743
0.12919337 -0.067337647 1.006 0.13969743
0.10634144 -0.060700603 1.007 0.13969743
0.11370421 -0.06062397 1.0080001 0.13969743
0.066055633 -0.085290089 1.0164286 0.17814861
0.074345745 -0.084888771 1.0146 0.17814861
0.082102008 -0.085315347 1.0150834 0.17814861
0.089734644 -0.085231133 1.0140833 0.17814861
0.097043335 -0.084518291 1.0132222 0.17814861
0.057146378 -0.080743596 1.0200001 0.17814861
0.057998344 -0.077208094 1.0155556 0.17814861
0.064073496 -0.08088214 1.0200001 0.17814861
0.066765718 -0.078205675 1.0166668 0.17814861
0.073879436 -0.077895738 1.0166364 0.17814861
0.076129019 -0.080719516 1.0204 0.17814861
0.08156953 -0.079951271 1.0205001 0.17814861
0.083225794 -0.077747196 1.0170002 0.17814861
0.090286858 -0.07873442 1.0181334 0.17814861
0.098323636 -0.078695364 1.0177693 0.17814861
0.08734858 -0.079912335 1.0200001 0.17814861
0.095753469 -0.079265803 1.0200001 0.17814861
0.069275565 -0.075362258 1.011 0.17814861
0.058527756 -0.062677667 1.0080001 0.074235804
0.05012811 -0.060077321 1.0126001 0.074235804
0.058789991 -0.060071383 1.0125 0.074235804
0.066524141 -0.060101051 1.013 0.074235804
0.074244961 -0.060115881 1.0132501 0.074235804
0.049983241 -0.056452502 1.0167273 0.074235804
0.057521354 -0.056294069 1.0161999 0.074235804
0.066441722 -0.055804532 1.0166667 0.074235804
0.074615546 -0.056649018 1.0170909 0.074235804
0.082160853 -0.055434134 1.0158126 0.074235804
0.089626193 -0.054744944 1.0153846 0.074235804
0.090422809 -0.058059912 1.011 0.074235804
0.04808883 -0.052851848 1.0218571 0.074235804
0.074576594 -0.053166568 1.0204 0.074235804
0.058398131 -0.051913351 1.0225002 0.074235804
0.064572588 -0.052072186 1.0218002 0.074235804
0.051142465 -0.049906079 1.0252 0.074235804
0.056160066 -0.049652621 1.026 0.074235804
0.067511797 -0.04908438 1.0243751 0.074235804
0.073286049 -0.048412025 1.0248573 0.074235804
0.081816204 -0.048511822 1.0251251 0.074235804
0.090058148 -0.050706271 1.01775 0.074235804
0.049845442 -0.045792267 1.0312308 0.074235804
0.057868272 -0.045945138 1.0304167 0.074235804
0.0649096 -0.046389394 1.0293751 0.074235804
0.090821043 -0.047267523 1.0233637 0.074235804
0.07464695 -0.044551011 1.0321666 0.074235804
0.082212657 -0.044248212 1.0326667 0.074235804
0.088546596 -0.044140775 1.0301667 0.074235804
0.061138533 -0.04373543 1.036 0.074235804
0.06511981 -0.043763574 1.0366668 0.074235804
0.050789163 -0.040144376 1.0404545 0.074235804
0.058404755 -0.039377719 1.0399287 0.074235804
0.066392243 -0.039992105 1.0411667 0.074235804
0.074439183 -0.039343003 1.0390002 0.074235804
0.081751749 -0.038482141 1.0386429 0.074235804
0.083712824 -0.041725092 1.0350001 0.074235804
0.089767762 -0.038250118 1.0393847 0.074235804
0.090601228 -0.041725088 1.0350001 0.074235804
0.050135165 -0.036556944 1.0448 0.074235804
0.058632806 -0.036132213 1.044 0.074235804
0.066622257 -0.036158167 1.0447501 0.074235804
0.072529405 -0.036132213 1.044 0.074235804
0.077418238 -0.034114271 1.0430001 0.074235804
0.08006268 -0.033453163 1.0430001 0.074235804
0.092593931 -0.033442259 1.0426668 0.074235804
0.050225545 -0.032264881 1.0474545 0.074235804
0.058765594 -0.033228002 1.0463752 0.074235804
0.065998733 -0.032664713 1.0474999 0.074235804
0.075234354 -0.031729262 1.0477272 0.074235804
0.083234064 -0.030721383 1.0470769 0.074235804
0.090160161 -0.030731769 1.0474616 0.074235804
0.051430244 -0.029083749 1.0523334 0.074235804
0.057141863 -0.029438376 1.053125 0.074235804
0.06579306 -0.029092433 1.0526667 0.074235804
0.072141431 -0.029430343 1.0528333 0.074235804
0.057830986 -0.025690833 1.0578572 0.074235804
0.065392748 -0.026532358 1.057 0.074235804
0.073431589 -0.025526747 1.057 0.074235804
0.076975673 -0.026369199 1.0505 0.074235804
0.082988888 -0.026375473 1.05075 0.074235804
0.08989393 -0.023983404 1.0555836 0.074235804
0.094000362 -0.02638175 1.051 0.074235804
0.098855421 -0.026344096 1.0495 0.074235804
0.10570902 -0.022793729 1.0558463 0.074235804
0.049912844 -0.021958083 1.0626667 0.074235804
0.057301216 -0.021948829 1.0622224 0.074235804
0.065723181 -0.022623027 1.0623336 0.074235804
0.073559225 -0.021978538 1.0636667 0.074235804
0.081952758 -0.02408291 1.0554001 0.074235804
0.09739574 -0.022474414 1.0553334 0.074235804
0.081380129 -0.021453062 1.0614287 0.074235804
0.088758349 -0.020560682 1.0600001 0.074235804
0.055814236 -0.018649993 1.0660001 0.074235804
0.058419444 -0.015246712 1.0712858 0.074235804
0.066028133 -0.014975765 1.071077 0.074235804
0.066900261 -0.0186325 1.0650001 0.074235804
0.073988326 -0.0186325 1.0650001 0.074235804
0.083074182 -0.01710421 1.064625 0.074235804
0.089767069 -0.017263835 1.0640001 0.074235804
0.098186061 -0.017599283 1.0638751 0.074235804
0.050706059 -0.01419484 1.0698889 0.074235804
0.074440524 -0.014668944 1.0715002 0.074235804
0.081427522 -0.014136107 1.0696251 0.074235804
0.091000639 -0.013479856 1.0694287 0.074235804
0.056285463 -0.010630717 1.075 0.074235804
0.12870236 -0.082942665 1.0096667 0.12594581
0.10548963 -0.07872957 1.0172499 0.12594581
0.11383102 -0.078669615 1.0158422 0.12594581
0.12199403 -0.079043463 1.0165385 0.12594581
0.12993045 -0.07840877 1.0159444 0.12594581
0.13820311 -0.07862749 1.016 0.12594581
0.123231 -0.07797274 1.0200001 0.12594581
0.12311158 -0.073286965 1.0142 0.12594581
0.12972583 -0.0712291 1.016 0.12594581
0.13195916 -0.074093543 1.0200001 0.12594581
0.13700013 -0.072261892 1.0238334 0.12594581
0.12979662 -0.061844859 1.0065556 0.12594581
0.13317674 -0.065014318 1.0145 0.12594581
0.13523905 -0.063151635 1.0155001 0.12594581
0.13841954 -0.063725159 1.02475 0.12594581
0.12778884 -0.062337093 1.0025001 0.12594581
0.12169038 -0.059759904 1.0072501 0.12594581
0.12202284 -0.058002479 1.01 0.12594581
0.13002484 -0.057138078 1.0092858 0.12594581
0.13499491 -0.056282956 1.0136667 0.12594581
0.13850155 -0.054871585 1.0232857 0.12594581
0.13011245 -0.053818863 1.0156667 0.12594581
0.097810611 -0.057494216 1.0107143 0.074235804
0.10580262 -0.058059912 1.011 0.074235804
0.1058929 -0.054812279 1.0145 0.074235804
0.11423308 -0.055365235 1.0155882 0.074235804
0.097525962 -0.054035403 1.0149001 0.074235804
0.12220789 -0.054257136 1.0146154 0.074235804
0.097847924 -0.050731182 1.0182501 0.074235804
0.10470214 -0.050768543 1.0190001 0.074235804
0.10634157 -0.04738716 1.0233077 0.074235804
0.11376064 -0.048476346 1.0232857 0.074235804
0.12114206 -0.050756089 1.0187501 0.074235804
0.12601672 -0.050768547 1.0190001 0.074235804
0.12982102 -0.048890326 1.024 0.074235804
0.13533227 -0.050017718 1.0235001 0.074235804
0.098375805 -0.047108736 1.0237499 0.074235804
0.12179608 -0.048108593 1.0242501 0.074235804
0.13672546 -0.046036538 1.0308572 0.074235804
0.11489961 -0.044106547 1.0293335 0.074235804
0.12240538 -0.044434581 1.0293751 0.074235804
0.13017274 -0.044412285 1.0288751 0.074235804
0.09793859 -0.043456804 1.0294001 0.074235804
0.10675889 -0.043461025 1.0295 0.074235804
0.09734723 -0.04100858 1.0335001 0.074235804
0.10520938 -0.041664623 1.0335 0.074235804
0.11395411 -0.041628338 1.0326 0.074235804
0.12274738 -0.041614227 1.03225 0.074235804
0.1307676 -0.039700966 1.0335834 0.074235804
0.13586785 -0.041725092 1.0350001 0.074235804
0.13699657 -0.038509004 1.0392858 0.074235804
0.09772595 -0.037483465 1.0375 0.074235804
0.1057772 -0.037935559 1.0390835 0.074235804
0.11352517 -0.037883997 1.0376667 0.074235804
0.12135085 -0.037862856 1.0370835 0.074235804
0.12820119 -0.036863424 1.0366668 0.074235804
0.097174436 -0.033095669 1.0421668 0.074235804
0.099169068 -0.030046821 1.0465001 0.074235804
0.1065964 -0.031257432 1.0471251 0.074235804
0.11393468 -0.030264156 1.0471817 0.074235804
0.11545358 -0.033307858 1.0426 0.074235804
0.12199885 -0.033110578 1.0426251 0.074235804
0.12966412 -0.033042736 1.0405 0.074235804
0.13474065 -0.033074494 1.0415001 0.074235804
0.12245096 -0.029252587 1.0465001 0.074235804
0.10499233 -0.02638175 1.051 0.074235804
0.11698356 -0.02638175 1.051 0.074235804
0.12271424 -0.026325271 1.04875 0.074235804
0.14598869 -0.039559606 1.0560001 0.074235804
0.14907455 -0.038285181 1.0625001 0.074235804
0.13866118 -0.032970417 1.0486668 0.074235804
0.14505966 -0.034637593 1.059 0.074235804
0.1450492 -0.031762052 1.0638334 0.074235804
0.14796852 -0.030935764 1.0703334 0.074235804
0.13044561 -0.029259099 1.0467501 0.074235804
0.13871226 -0.029251445 1.0536001 0.074235804
0.11332583 -0.02372889 1.0563077 0.074235804
0.13078879 -0.026344098 1.0495001 0.074235804
0.13672832 -0.023879405 1.0553 0.074235804
0.14372128 -0.026708068 1.064 0.074235804
0.12153757 -0.022683967 1.0566365 0.074235804
0.12947454 -0.022468774 1.0550834 0.074235804
0.1401304 -0.022627307 1.0623333 0.074235804
0.14354865 -0.022793701 1.07025 0.074235804
0.14777334 -0.022975992 1.0788 0.074235804
0.11395402 -0.020560682 1.0600001 0.074235804
0.12302445 -0.020560682 1.0600001 0.074235804
0.11427581 -0.017585637 1.0630001 0.074235804
0.12244924 -0.017597808 1.06375 0.074235804
0.13050778 -0.016580136 1.0635 0.074235804
0.136979 -0.017264575 1.064 0.074235804
0.14316295 -0.01880745 1.075 0.074235804
0.14502357 -0.016859302 1.0812501 0.074235804
0.13813557 -0.013978229 1.0703334 0.074235804
0.1221347 -0.013630622 1.069875 0.074235804
0.1291495 -0.012604157 1.069 0.074235804
0.14138132 -0.012698482 1.077 0.074235804
0.13571312 -0.0085666282 1.0726666 0.074235804
0.13848184 -0.0065607335 1.0783334 0.074235804
0.14203767 -0.01069994 1.082 0.074235804
0.058828771 -0.007147267 1.0787858 0.074235804
0.066195995 -0.0073508401 1.0789232 0.074235804
0.06855052 -0.010630717 1.075 0.074235804
0.071616784 -0.010630717 1.075 0.074235804
0.074342906 -0.0074386699 1.0785716 0.074235804
0.082961686 -0.0087524848 1.0727273 0.074235804
0.089221962 -0.0092550591 1.0736666 0.074235804
0.050759237 -0.0069754147 1.0792 0.074235804
0.090181842 -0.0056759971 1.077 0.074235804
0.08039239 -0.0051964233 1.0785002 0.074235804
0.05361525 -0.0024722435 1.0830001 0.074235804
0.057699118 -0.0024707215 1.0823334 0.074235804
0.058529135 0.00017897121 1.0868572 0.074235804
0.065511726 -0.00022314429 1.0878181 0.074235804
0.073471427 0.00062186737 1.0873001 0.074235804
0.074209131 -0.0024722435 1.0830001 0.074235804
0.081331588 -0.0014399771 1.0818751 0.074235804
0.089540124 -0.001439644 1.0816251 0.074235804
0.081745535 0.002688366 1.0873752 0.074235804
0.089954279 0.0026865127 1.0866251 0.074235804
0.057215542 0.003739309 1.09275 0.074235804
0.06552583 0.0037393093 1.0927501 0.074235804
0.072815947 0.0037401647 1.0930001 0.074235804
0.057346437 0.0068733264 1.0952501 0.074235804
0.065382801 0.0080976635 1.0961667 0.074235804
0.074425958 0.0074986843 1.0953001 0.074235804
0.082027651 0.0094046835 1.0950714 0.074235804
0.084093019 0.0058079297 1.0910001 0.074235804
0.089279518 0.0058079297 1.0910001 0.074235804
0.09052176 0.0091928607 1.0944616 0.074235804
0.073674686 0.011440487 1.1006666 0.074235804
0.090979084 0.014209803 1.0990001 0.074235804
0.097227119 0.014206571 1.09875 0.074235804
0.10621655 -0.017589297 1.0632501 0.074235804
0.09878549 -0.013637232 1.070375 0.074235804
0.10679048 -0.013619593 1.0690001 0.074235804
0.11453162 -0.013769979 1.0694287 0.074235804
0.098597929 -0.0095977373 1.0738751 0.074235804
0.10562932 -0.0094478866 1.0734285 0.074235804
0.11275348 -0.0099410815 1.0741667 0.074235804
0.12262911 -0.0098058926 1.0741999 0.074235804
0.12154154 -0.0065566991 1.0777274 0.074235804
0.12972409 -0.0085755968 1.07375 0.074235804
0.096553117 -0.0060985675 1.077 0.074235804
0.1142178 -0.0061478526 1.0777 0.074235804
0.10553027 -0.0055292915 1.0768751 0.074235804
0.13020733 -0.0045096721 1.0777501 0.074235804
0.097642586 -0.0014381693 1.08025 0.074235804
0.10588561 -0.0014382646 1.0805 0.074235804
0.11419644 -0.0014393111 1.081375 0.074235804
0.1229373 -0.00082312833 1.0823001 0.074235804
0.13069178 -0.0014401671 1.08175 0.074235804
0.13650857 -0.0017827341 1.0816668 0.074235804
0.098163515 0.0026843739 1.086 0.074235804
0.10650951 0.0026864172 1.0868751 0.074235804
0.1146971 0.002685277 1.086125 0.074235804
0.1221054 0.0030245495 1.0846667 0.074235804
0.13007328 0.0026823936 1.0851667 0.074235804
0.098785773 0.0062207221 1.0906001 0.074235804
0.10483903 0.0058079297 1.0910001 0.074235804
0.10555733 0.0090708025 1.0948889 0.074235804
0.11296748 0.009515279 1.0947694 0.074235804
0.11552229 0.0064976909 1.0906668 0.074235804
0.12121274 0.0068331612 1.0890001 0.074235804
0.12951164 0.0068343021 1.089125 0.074235804
0.13479708 0.0068389601 1.09 0.074235804
0.097743638 0.010207693 1.0951999 0.074235804
0.12185371 0.011033906 1.09475 0.074235804
0.13014901 0.011031149 1.0945001 0.074235804
0.10674974 0.012131009 1.1 0.074235804
0.10247306 0.014209803 1.0990001 0.074235804
0.11483562 0.014188253 1.0973334 0.074235804
0.12213317 0.014187176 1.09725 0.074235804
0.13047577 0.014187176 1.0972501 0.074235804
0.13578641 0.014196873 1.098 0.074235804
0.12226349 0.018268846 1.1041001 0.074235804
0.13018531 0.018279808 1.1036364 0.074235804
0.14560811 -0.098667085 0.99400002 0.074235804
0.14616834 -0.094878942 0.99921066 0.074235804
0.15424712 -0.095236704 0.99866688 0.074235804
0.16167216 -0.098667078 0.99400002 0.074235804
0.1701784 -0.098667078 0.99400008 0.074235804
0.1620917 -0.094456844 0.9995001 0.074235804
0.17008579 -0.095361382 0.99900007 0.074235804
0.16998169 -0.092023015 1.0040001 0.074235804
0.17888585 -0.092183411 1.0057501 0.074235804
0.14311068 -0.090024084 1.003 0.074235804
0.15358081 -0.088552445 1.0079999 0.074235804
0.16203295 -0.088552751 1.008 0.074235804
0.16996418 -0.088646837 1.0073847 0.074235804
0.17788513 -0.087815486 1.0079999 0.074235804
0.17845905 -0.098543003 0.99275005 0.074235804
0.18601155 -0.098542996 0.99275005 0.074235804
0.19346374 -0.098493367 0.99225008 0.074235804
0.19905333 -0.096309617 0.99900007 0.074235804
0.17794992 -0.095504545 1.0005001 0.074235804
0.18601274 -0.095524445 0.99928576 0.074235804
0.19408123 -0.095329553 0.99866682 0.074235804
0.18648684 -0.092160508 1.0055001 0.074235804
0.1939894 -0.092091754 1.0047501 0.074235804
0.19861917 -0.092023015 1.0040001 0.074235804
0.18567109 -0.088830158 1.0094615 0.074235804
0.19418021 -0.088529937 1.0092857 0.074235804
0.19941048 -0.088553548 1.008 0.074235804
0.14653623 -0.08689665 1.006875 0.074235804
0.13839608 -0.085415065 1.0077499 0.074235804
0.15440027 -0.084722996 1.0131112 0.074235804
0.16209583 -0.08429502 1.0144 0.074235804
0.1705839 -0.084199697 1.0132501 0.074235804
0.17754729 -0.083830565 1.0126667 0.074235804
0.14314917 -0.082970046 1.01 0.074235804
0.14584307 -0.080513604 1.015375 0.074235804
0.1536973 -0.080583818 1.0162501 0.074235804
0.16166587 -0.080703005 1.01775 0.074235804
0.16991033 -0.080794781 1.0175556 0.074235804
0.17753486 -0.079886816 1.0174546 0.074235804
0.14674151 -0.077125259 1.0216249 0.074235804
0.15437645 -0.077059314 1.02075 0.074235804
0.16214359 -0.077059567 1.02075 0.074235804
0.17003013 -0.0771157 1.0215001 0.074235804
0.14492716 -0.073793672 1.0248333 0.074235804
0.15367787 -0.073621064 1.0254445 0.074235804
0.16188946 -0.072527066 1.0253078 0.074235804
0.16963774 -0.07367558 1.0250001 0.074235804
0.17009485 -0.0697155 1.0311428 0.074235804
0.16188808 -0.068062358 1.0315001 0.074235804
0.14617428 -0.069523677 1.0303571 0.074235804
0.14053011 -0.068908736 1.0295 0.074235804
0.15390529 -0.068979815 1.0305834 0.074235804
0.14139551 -0.062223878 1.03225 0.074235804
0.14587641 -0.064847901 1.0333999 0.074235804
0.15445316 -0.06529519 1.03425 0.074235804
0.16216201 -0.065232061 1.03325 0.074235804
0.16927189 -0.065321505 1.0346668 0.074235804
0.17002831 -0.061962768 1.0393078 0.074235804
0.14678912 -0.061581757 1.038 0.074235804
0.1537288 -0.061858054 1.0396364 0.074235804
0.16238181 -0.062333047 1.0395557 0.074235804
0.15690157 -0.059955038 1.044 0.074235804
0.16087203 -0.059955042 1.044 0.074235804
0.14024687 -0.054315738 1.031 0.074235804
0.14547111 -0.0547297 1.0411112 0.074235804
0.15429497 -0.055892363 1.0480769 0.074235804
0.16252276 -0.05521189 1.04825 0.074235804
0.14889145 -0.054650333 1.0469999 0.074235804
0.15510324 -0.05241267 1.052 0.074235804
0.1581039 -0.05241267 1.052 0.074235804
0.14273104 -0.04993302 1.0420001 0.074235804
0.1454023 -0.047364384 1.0485556 0.074235804
0.15365818 -0.047578681 1.0558126 0.074235804
0.1618125 -0.047617264 1.056625 0.074235804
0.14029936 -0.045819294 1.0386667 0.074235804
0.14859442 -0.045562662 1.0555 0.074235804
0.14099574 -0.03924118 1.0475 0.074235804
0.14359856 -0.040265966 1.0483333 0.074235804
0.15429051 -0.04011121 1.063143 0.074235804
0.16228209 -0.039943308 1.0630001 0.074235804
0.17017446 -0.039893378 1.0632669 0.074235804
0.17797817 -0.040835708 1.063182 0.074235804
0.16118748 -0.035397016 1.0698001 0.074235804
0.15355664 -0.032326233 1.0714445 0.074235804
0.15470509 -0.034997381 1.0700001 0.074235804
0.17000408 -0.035005558 1.0702502 0.074235804
0.16231042 -0.031676695 1.0724444 0.074235804
0.1703622 -0.03201858 1.0725 0.074235804
0.14879863 -0.027699685 1.0763334 0.074235804
0.15458499 -0.028038608 1.0762501 0.074235804
0.16260894 -0.02788977 1.076143 0.074235804
0.17002702 -0.028053882 1.0768334 0.074235804
0.15387067 -0.023028094 1.0813 0.074235804
0.1615212 -0.023033818 1.0815834 0.074235804
0.16935508 -0.023447925 1.0817001 0.074235804
0.17808652 -0.025108203 1.0822501 0.074235804
0.1859304 -0.084168643 1.0128751 0.074235804
0.19372824 -0.084210195 1.013375 0.074235804
0.19837537 -0.084137604 1.0125 0.074235804
0.18610817 -0.080517918 1.0167778 0.074235804
0.19444586 -0.080652848 1.017125 0.074235804
0.19915909 -0.080603167 1.0165 0.074235804
0.17839989 -0.076540321 1.0216001 0.074235804
0.18547955 -0.077077478 1.0210001 0.074235804
0.1934115 -0.077143416 1.0218749 0.074235804
0.19839029 -0.07719025 1.0225 0.074235804
0.17836559 -0.074438579 1.0247501 0.074235804
0.185693 -0.074095219 1.0254 0.074235804
0.19409819 -0.074493065 1.0255001 0.074235804
0.19906938 -0.074529387 1.026 0.074235804
0.17781095 -0.070170954 1.0311764 0.074235804
0.18611178 -0.069833897 1.0305625 0.074235804
0.19426477 -0.069885403 1.0303531 0.074235804
0.19935441 -0.069919609 1.0300001 0.074235804
0.17719825 -0.065342553 1.0350001 0.074235804
0.17848855 -0.061800618 1.0394667 0.074235804
0.18590604 -0.062449168 1.0387501 0.074235804
0.18802287 -0.065342553 1.0350001 0.074235804
0.19383256 -0.065310985 1.0345 0.074235804
0.19846325 -0.065216281 1.033 0.074235804
0.19420925 -0.061576746 1.0402858 0.074235804
0.19948788 -0.061602805 1.0383334 0.074235804
0.17039517 -0.05517837 1.0476249 0.074235804
0.17842786 -0.05519706 1.048 0.074235804
0.18643674 -0.054782074 1.0482142 0.074235804
0.18550953 -0.057914276 1.0430001 0.074235804
0.19431131 -0.055181369 1.0476874 0.074235804
0.19821092 -0.05785875 1.0420001 0.074235804
0.19903521 -0.054116849 1.0463334 0.074235804
0.16957895 -0.047322128 1.0545334 0.074235804
0.17094409 -0.050364301 1.051 0.074235804
0.17594045 -0.050364301 1.051 0.074235804
0.17776778 -0.047078397 1.0542144 0.074235804
0.18578111 -0.047578685 1.0558126 0.074235804
0.19377619 -0.047570646 1.0556251 0.074235804
0.19853641 -0.047508914 1.05425 0.074235804
0.1990543 -0.042612001 1.057 0.074235804
0.18584158 -0.040861685 1.0638334 0.074235804
0.19330007 -0.040220007 1.0646667 0.074235804
0.19527979 -0.04266575 1.0583334 0.074235804
0.19902243 -0.040195242 1.064 0.074235804
0.17808333 -0.036009446 1.069875 0.074235804
0.18611239 -0.035988286 1.0692501 0.074235804
0.1942444 -0.035988286 1.0692501 0.074235804
0.19928138 -0.035980109 1.069 0.074235804
0.1784367 -0.032004125 1.072 0.074235804
0.18617876 -0.032153998 1.0721428 0.074235804
0.19435683 -0.031920101 1.0730001 0.074235804
0.19946779 -0.032962706 1.0700001 0.074235804
0.17734484 -0.028077209 1.07775 0.074235804
0.18554246 -0.028077209 1.07775 0.074235804
0.1937615 -0.028080584 1.0778751 0.074235804
0.19863248 -0.028044881 1.0765001 0.074235804
0.18627365 -0.024072705 1.0820001 0.074235804
0.19508432 -0.024685884 1.0818001 0.074235804
0.19955507 -0.024061106 1.0815001 0.074235804
0.15141892 -0.019675335 1.0853333 0.074235804
0.17112863 -0.019686999 1.086 0.074235804
0.1472422 -0.01529603 1.0870001 0.074235804
0.15471581 -0.0165597 1.0887001 0.074235804
0.16225679 -0.019008648 1.0865 0.074235804
0.16209774 -0.016576014 1.0896001 0.074235804
0.17003298 -0.016997175 1.09 0.074235804
0.14964841 -0.013919491 1.0925 0.074235804
0.16191544 -0.013585513 1.0935 0.074235804
0.15377922 -0.012879271 1.0923333 0.074235804
0.14386073 -0.0081740944 1.0880001 0.074235804
0.14634889 -0.0082271546 1.095 0.074235804
0.15328968 -0.010840858 1.0962501 0.074235804
0.16188531 -0.010858164 1.098 0.074235804
0.15409361 -0.006703658 1.1019999 0.074235804
0.16251089 -0.0067059714 1.10225 0.074235804
0.14806564 -0.0053055938 1.1013334 0.074235804
0.13769974 0.0014240619 1.0874445 0.074235804
0.14413805 -0.00041856515 1.098 0.074235804
0.14652753 -1.1381693e-06 1.1034 0.074235804
0.15352859 4.8025653e-05 1.1105556 0.074235804
0.15689716 -0.00252703 1.107 0.074235804
0.16215973 -0.00252703 1.107 0.074235804
0.16980283 -0.0016222637 1.1058571 0.074235804
0.14773591 0.0023901649 1.1093334 0.074235804
0.16167745 0.0016916865 1.1109167 0.074235804
0.16968629 0.002393798 1.1103334 0.074235804
0.14166203 0.0016647935 1.095 0.074235804
0.17844915 0.0027448221 1.1101251 0.074235804
0.13746202 0.0085061947 1.0947144 0.074235804
0.14358774 0.0079744104 1.1034 0.074235804
0.17848013 -0.02125858 1.0863637 0.074235804
0.1861003 -0.020852139 1.0858001 0.074235804
0.1937944 -0.02085777 1.0861001 0.074235804
0.19841161 -0.020040248 1.0865 0.074235804
0.17791036 -0.016582252 1.09 0.074235804
0.1849564 -0.016582252 1.09 0.074235804
0.19456311 -0.01658849 1.0904 0.074235804
0.19914207 -0.015967667 1.0905001 0.074235804
0.16957755 -0.013934942 1.0937501 0.074235804
0.17730662 -0.01377538 1.0928571 0.074235804
0.18653545 -0.013777607 1.0930001 0.074235804
0.19398306 -0.013778748 1.0931427 0.074235804
0.19959861 -0.012887131 1.0930001 0.074235804
0.16976699 -0.0099611133 1.0978571 0.074235804
0.17854725 -0.0098110177 1.0977499 0.074235804
0.18673596 -0.0091757709 1.0968001 0.074235804
0.19379459 -0.0085579529 1.0978 0.074235804
0.19871843 -0.0092793871 1.09675 0.074235804
0.17077863 -0.0061787926 1.1015 0.074235804
0.17754574 -0.0055069425 1.1017143 0.074235804
0.1845755 -0.005302107 1.1005 0.074235804
0.19364484 -0.0046048658 1.1005001 0.074235804
0.19896591 -0.004606958 1.1010001 0.074235804
0.17764567 -0.0014711838 1.1051251 0.074235804
0.18629906 -0.00083885493 1.1041 0.074235804
0.19420172 -0.00041834847 1.1036668 0.074235804
0.19932735 -0.0014682342 1.103 0.074235804
0.049232803 0.011086525 1.1001251 0.074235804
0.057646785 0.011095702 1.1010001 0.074235804
0.067022853 0.011610836 1.10025 0.074235804
0.049901862 0.015189541 1.105 0.074235804
0.058916986 0.015342054 1.1051667 0.074235804
0.066212572 0.016378628 1.1041667 0.074235804
0.07483463 0.017223246 1.1044 0.074235804
0.082239464 0.017181069 1.1036155 0.074235804
0.088913783 0.017434854 1.1045001 0.074235804
0.049328171 0.019281268 1.1101111 0.074235804
0.057468794 0.018781273 1.1097001 0.074235804
0.066471942 0.020656295 1.1085001 0.074235804
0.071773045 0.020665612 1.1090001 0.074235804
0.049684078 0.025797423 1.1181111 0.074235804
0.050958972 0.022897666 1.115 0.074235804
0.05938543 0.024466364 1.1140001 0.074235804
0.066478528 0.024792558 1.1134546 0.074235804
0.073637143 0.025159314 1.1117001 0.074235804
0.081360191 0.02475401 1.1116363 0.074235804
0.056334779 0.026113115 1.1165001 0.074235804
0.082836777 0.027162496 1.1160001 0.074235804
0.049606714 0.029890174 1.1228001 0.074235804
0.059120823 0.030316051 1.1204287 0.074235804
0.066154726 0.030483579 1.1210002 0.074235804
0.073204823 0.029251844 1.11475 0.074235804
0.082096279 0.0326005 1.1203749 0.074235804
0.050656784 0.034005083 1.1253637 0.074235804
0.057586368 0.034447335 1.1261429 0.074235804
0.074435815 0.032305911 1.1226667 0.074235804
0.065379217 0.034901861 1.1260002 0.074235804
0.046927992 0.037908621 1.12 0.074235804
0.05036274 0.040088356 1.128 0.074235804
0.055843029 0.038179398 1.128 0.074235804
0.073263749 0.035274062 1.1265 0.074235804
0.05813387 0.042172018 1.1343334 0.074235804
0.065518804 0.042071223 1.1337143 0.074235804
0.067820191 0.038280942 1.131 0.074235804
0.075308368 0.039490554 1.1304287 0.074235804
0.082061395 0.040138122 1.1287 0.074235804
0.08919172 0.040373497 1.1293001 0.074235804
0.073638014 0.043180943 1.1341112 0.074235804
0.050997924 0.044021465 1.1348001 0.074235804
0.090225905 0.044429008 1.1342002 0.074235804
0.082064703 0.04487798 1.1346668 0.074235804
0.049829662 0.047159981 1.1376667 0.074235804
0.057382472 0.047142711 1.1372501 0.074235804
0.066002682 0.04820421 1.13675 0.074235804
0.075158872 0.048077531 1.1374286 0.074235804
0.082305782 0.04825579 1.138 0.074235804
0.089832313 0.048880119 1.1374 0.074235804
0.050063591 0.050642889 1.143 0.074235804
0.057621907 0.050598424 1.1420001 0.074235804
0.073350161 0.051129527 1.1417501 0.074235804
0.066263966 0.051648848 1.14125 0.074235804
0.081472658 0.051660161 1.1415 0.074235804
0.090037659 0.051592279 1.1400001 0.074235804
0.09658286 0.051614907 1.1405001 0.074235804
0.05022515 0.054074448 1.1466666 0.074235804
0.057810411 0.054031219 1.14575 0.074235804
0.066064812 0.054971028 1.1458572 0.074235804
0.074114338 0.055093307 1.1451666 0.074235804
0.081758 0.056199264 1.1455001 0.074235804
0.090374045 0.056138888 1.14425 0.074235804
0.049770657 0.057698254 1.1505715 0.074235804
