# .PCD v0.7 - Point Cloud Data file format
VERSION 0.7
FIELDS x y z rgba
SIZE 4 4 4 4
TYPE F F F U
COUNT 1 1 1 1
WIDTH 1147
HEIGHT 1
VIEWPOINT 0 0 0 1 0 0 0
POINTS 1147
DATA ascii
-0.21338806 0.32985273 1.059 4289900207
-0.21137431 0.32985273 1.059 4289966000
-0.20936055 0.32985273 1.059 4290031793
-0.20695522 0.3292298 1.057 4289966000
-0.20475137 0.32891828 1.056 4290031793
-0.20274332 0.32891828 1.056 4290031793
-0.20092538 0.3292298 1.057 4289966000
-0.1992918 0.32985273 1.059 4289834414
-0.19709177 0.32954127 1.0580001 4289900207
-0.19526429 0.32985273 1.059 4290097586
-0.19306807 0.32954127 1.0580001 4290031539
-0.19087563 0.3292298 1.057 4290097332
-0.18886569 0.3292298 1.057 4290097332
-0.18685573 0.3292298 1.057 4290097332
-0.18467091 0.32891828 1.056 4289965746
-0.18266286 0.32891828 1.056 4289899953
-0.18065481 0.32891828 1.056 4289834160
-0.1784776 0.32860681 1.0550001 4289899953
-0.17647146 0.32860681 1.0550001 4289899953
-0.17463067 0.32891828 1.056 4289899953
-0.17262262 0.32891828 1.056 4289965746
-0.17045303 0.32860681 1.0550001 4289899953
-0.16844688 0.32860681 1.0550001 4289834160
-0.16628297 0.32829535 1.054 4289768367
-0.16427872 0.32829535 1.054 4289702574
-0.1625824 0.32891828 1.056 4289637035
-0.16057435 0.32891828 1.056 4289505449
-0.1585663 0.32891828 1.056 4289373861
-0.15670651 0.3292298 1.057 4289242275
-0.15455021 0.32891828 1.056 4289044896
-0.15239772 0.32860681 1.0550001 4288913308
-0.15039158 0.32860681 1.0550001 4288715929
-0.14824477 0.32829535 1.054 4288584086
-0.14624053 0.32829535 1.054 4288386707
-0.14423628 0.32829535 1.054 4287794570
-0.14223205 0.32829535 1.054 4287465605
-0.13996172 0.32767239 1.052 4287531144
-0.13769899 0.32704943 1.0500001 4287465351
-0.1355731 0.32673797 1.049 4286675837
-0.1333237 0.32611501 1.0470001 4285688942
-0.13120733 0.32580355 1.046 4284964451
-0.12921831 0.32580355 1.046 4284240726
-0.12722927 0.32580355 1.046 4283451210
-0.12524024 0.32580355 1.046 4283188038
-0.12325121 0.32580355 1.046 4282859073
-0.12126217 0.32580355 1.046 4282793282
-0.11927314 0.32580355 1.046 4282727489
-0.11717199 0.32549208 1.0450001 4282727489
-0.11507463 0.32518059 1.044 4282596673
-0.11298108 0.32486913 1.0430001 4282662464
-0.11110418 0.32518059 1.044 4282530878
-0.10911895 0.32518059 1.044 4282728257
-0.10713372 0.32518059 1.044 4282794048
-0.10524921 0.32549208 1.0450001 4282728509
-0.10336089 0.32580355 1.046 4282794301
-0.10137186 0.32580355 1.046 4282925887
-0.099287823 0.32549208 1.0450001 4282860605
-0.097300693 0.32549208 1.0450001 4282663226
-0.095404774 0.32580355 1.046 4282861121
-0.093415737 0.32580355 1.046 4282861635
-0.091426708 0.32580355 1.046 4282598463
-0.089437678 0.32580355 1.046 4282795842
-0.087448649 0.32580355 1.046 4282466364
-0.085459612 0.32580355 1.046 4282795329
-0.083550394 0.32611501 1.0470001 4282861122
-0.081559457 0.32611501 1.0470001 4283387466
-0.079492524 0.32580355 1.046 4283124296
-0.077429399 0.32549208 1.0450001 4283387468
-0.075442269 0.32549208 1.0450001 4283847249
-0.073384851 0.32518059 1.044 4284176214
-0.071399622 0.32518059 1.044 4284636765
-0.069414392 0.32518059 1.044 4285294695
-0.067429163 0.32518059 1.044 4285755246
-0.065506622 0.32549208 1.0450001 4285952627
-0.063580275 0.32580355 1.046 4286281338
-0.061591249 0.32580355 1.046 4286545282
-0.059659198 0.32611501 1.0470001 4287005833
-0.057668265 0.32611501 1.0470001 4287466384
-0.055677332 0.32611501 1.0470001 4287664020
-0.053686399 0.32611501 1.0470001 4287861399
-0.051695466 0.32611501 1.0470001 4288058778
-0.049704533 0.32611501 1.0470001 4288321950
-0.047804747 0.32673797 1.049 4288650915
-0.04581001 0.32673797 1.049 4288848294
-0.043815274 0.32673797 1.049 4288848294
-0.041860405 0.32704943 1.0500001 4288914087
-0.039901733 0.32736093 1.051 4289308588
-0.037939262 0.32767239 1.052 4289308588
-0.035938818 0.32767239 1.052 4289307818
-0.033938378 0.32767239 1.052 4289308588
-0.031937938 0.32767239 1.052 4289374638
-0.029965956 0.32798389 1.0530001 4289440431
-0.02799017 0.32829535 1.054 4289374638
-0.025985926 0.32829535 1.054 4289308845
-0.023981683 0.32829535 1.054 4289308845
-0.02197744 0.32829535 1.054 4289506224
-0.019973196 0.32829535 1.054 4289572017
-0.017968953 0.32829535 1.054 4289506224
-0.015964709 0.32829535 1.054 4289506224
-0.013960466 0.32829535 1.054 4289572017
-0.011956222 0.32829535 1.054 4289572017
-0.0099519789 0.32829535 1.054 4289637810
-0.0079552764 0.32860681 1.0550001 4289637810
-0.0059547699 0.32891828 1.056 4289637810
-0.0039467234 0.32891828 1.056 4289703603
-0.0019386768 0.32891828 1.056 4289703603
6.9369773e-05 0.32891828 1.056 4289769909
0.0020754491 0.32860681 1.0550001 4289769909
0.0040815938 0.32860681 1.0550001 4289769909
0.0060935095 0.32891828 1.056 4289835702
0.0081092278 0.3292298 1.057 4289835702
0.01012875 0.32954127 1.0580001 4289835702
0.0121406 0.32954127 1.0580001 4289769909
0.014139073 0.3292298 1.057 4289769909
0.01614902 0.3292298 1.057 4289638323
0.018158969 0.3292298 1.057 4289638323
0.020187998 0.32954127 1.0580001 4289704116
0.022199849 0.32954127 1.0580001 4289704116
0.024211697 0.32954127 1.0580001 4289704116
0.026223548 0.32954127 1.0580001 4289638323
0.028208708 0.3292298 1.057 4289704116
0.030190067 0.32891828 1.056 4289704116
0.032198116 0.32891828 1.056 4289835189
0.034206163 0.32891828 1.056 4289835189
0.036214206 0.32891828 1.056 4289835189
0.038222253 0.32891828 1.056 4289835189
0.0402303 0.32891828 1.056 4289835189
0.042278346 0.3292298 1.057 4289835189
0.044288296 0.3292298 1.057 4289835189
0.046298243 0.3292298 1.057 4289835189
0.04830819 0.3292298 1.057 4289900982
0.050318141 0.3292298 1.057 4289769396
0.052278582 0.32891828 1.056 4289769396
0.054235216 0.32860681 1.0550001 4289835189
0.056241363 0.32860681 1.0550001 4289769396
0.058247507 0.32860681 1.0550001 4289572017
0.060253654 0.32860681 1.0550001 4289506224
0.062318813 0.32891828 1.056 4289506224
0.06432686 0.32891828 1.056 4289637810
0.066397727 0.3292298 1.057 4289637810
0.06840767 0.3292298 1.057 4289637810
0.07041762 0.3292298 1.057 4289637810
0.072290525 0.32860681 1.0550001 4289637810
0.074155822 0.32798389 1.0530001 4289637810
0.076158158 0.32798389 1.0530001 4289637810
0.078160502 0.32798389 1.0530001 4289637810
0.080238976 0.32829535 1.054 4289637810
0.082321249 0.32860681 1.0550001 4289637810
0.084327392 0.32860681 1.0550001 4289703603
0.086251706 0.32829535 1.054 4289769396
0.088172212 0.32798389 1.0530001 4289769396
0.090088926 0.32767239 1.052 4289769396
0.092089362 0.32767239 1.052 4289769396
0.094089806 0.32767239 1.052 4289769396
0.096090242 0.32767239 1.052 4289769396
0.098090686 0.32767239 1.052 4289703603
0.10009113 0.32767239 1.052 4289637810
0.10209157 0.32767239 1.052 4289637810
0.10438884 0.32860681 1.0550001 4289572017
0.10639499 0.32860681 1.0550001 4289506224
0.10840113 0.32860681 1.0550001 4289572017
0.11030263 0.32829535 1.054 4289703603
0.11241342 0.32860681 1.0550001 4289572017
0.11452802 0.32891828 1.056 4289506224
0.11653607 0.32891828 1.056 4289506224
0.11843186 0.32860681 1.0550001 4289572017
0.120438 0.32860681 1.0550001 4289703603
0.12232809 0.32829535 1.054 4289703603
0.12433233 0.32829535 1.054 4289637810
0.12633657 0.32829535 1.054 4289572017
0.12834083 0.32829535 1.054 4289637811
0.13034506 0.32829535 1.054 4289637811
0.13247487 0.32860681 1.0550001 4289637811
0.13460849 0.32891828 1.056 4289637811
0.13648716 0.32860681 1.0550001 4289637811
0.13862459 0.32891828 1.056 4289637811
0.14063263 0.32891828 1.056 4289637811
0.14264068 0.32891828 1.056 4289637811
0.14464873 0.32891828 1.056 4289572018
0.14651789 0.32860681 1.0550001 4289637811
0.14824247 0.32798389 1.0530001 4289637811
0.15024482 0.32798389 1.0530001 4289637811
0.15224715 0.32798389 1.0530001 4289637811
0.15424949 0.32798389 1.0530001 4289637811
0.15640023 0.32829535 1.054 4289703604
0.15840447 0.32829535 1.054 4289769397
0.16040872 0.32829535 1.054 4289835189
0.16225886 0.32798389 1.0530001 4289835189
0.16410522 0.32767239 1.052 4289769909
0.16594775 0.32736093 1.051 4289769909
0.16794629 0.32736093 1.051 4289769910
0.16994484 0.32736093 1.051 4289835703
0.17210698 0.32767239 1.052 4289835703
0.17427291 0.32798389 1.0530001 4289835703
0.17627525 0.32798389 1.0530001 4289835703
0.1781083 0.32767239 1.052 4289638323
0.17976633 0.32704943 1.0500001 4289573300
0.18158986 0.32673797 1.049 4289704884
0.1835846 0.32673797 1.049 4289375917
0.18593314 0.32736093 1.051 4288784034
0.18793169 0.32736093 1.051 4288652446
-0.35634768 0.32998621 1.0530001 4290625216
-0.35333583 0.32904607 1.0500001 4290756804
-0.35100457 0.3287327 1.049 4290822597
-0.34867713 0.32841933 1.0480001 4290822598
-0.34668428 0.32841933 1.0480001 4290822598
-0.34502035 0.3287327 1.049 4290888391
-0.34302562 0.3287327 1.049 4291019723
-0.3410309 0.3287327 1.049 4291085516
-0.33903617 0.3287327 1.049 4291019723
-0.33704141 0.3287327 1.049 4290953930
-0.33504668 0.3287327 1.049 4291217104
-0.33273444 0.32841933 1.0480001 4291085516
-0.33074161 0.32841933 1.0480001 4290953930
-0.32874879 0.32841933 1.0480001 4290954184
-0.32675594 0.32841933 1.0480001 4291019977
-0.325073 0.3287327 1.049 4291085770
-0.32307827 0.3287327 1.049 4291019977
-0.32077745 0.32841933 1.0480001 4290954183
-0.31848043 0.32810596 1.0470001 4291019976
-0.31648949 0.32810596 1.0470001 4290822597
-0.31479895 0.32841933 1.0480001 4290822598
-0.3128061 0.32841933 1.0480001 4290954184
-0.31110987 0.3287327 1.049 4291019977
-0.30882043 0.32841933 1.0480001 4290822598
-0.3068276 0.32841933 1.0480001 4290625219
-0.30483478 0.32841933 1.0480001 4290558913
-0.30313092 0.3287327 1.049 4290756292
-0.30142325 0.32904607 1.0500001 4290361533
-0.29942662 0.32904607 1.0500001 4290690241
-0.29742998 0.32904607 1.0500001 4290361274
-0.29515198 0.3287327 1.049 4290690237
-0.29315725 0.3287327 1.049 4290558651
-0.29171762 0.32935947 1.051 4290952893
-0.28944343 0.32904607 1.0500001 4290558135
-0.2874468 0.32904607 1.0500001 4290623930
-0.28545016 0.32904607 1.0500001 4290623930
-0.28345352 0.32904607 1.0500001 4290623930
-0.28172493 0.32935947 1.051 4290558137
-0.27999252 0.32967284 1.052 4290492344
-0.2779921 0.32967284 1.052 4290360758
-0.27599165 0.32967284 1.052 4290294965
-0.27451211 0.33029959 1.054 4290229172
-0.27276641 0.33061296 1.0550001 4290229172
-0.2710169 0.33092633 1.056 4290360758
-0.26900887 0.33092633 1.056 4290360758
-0.26674798 0.33061296 1.0550001 4290294965
-0.26474181 0.33061296 1.0550001 4290294965
-0.26273566 0.33061296 1.0550001 4290426551
-0.26072952 0.33061296 1.0550001 4290426551
-0.25872338 0.33061296 1.0550001 4290294965
-0.25623059 0.32998621 1.0530001 4290228918
-0.25422826 0.32998621 1.0530001 4290228918
-0.25246546 0.33029959 1.054 4290228918
-0.2506988 0.33061296 1.0550001 4290294711
-0.2489284 0.33092633 1.056 4290294711
-0.24715418 0.33123976 1.057 4290294711
-0.24514423 0.33123976 1.057 4290228918
-0.24313429 0.33123976 1.057 4290163125
-0.24135247 0.33155313 1.0580001 4290097332
-0.23911439 0.33123976 1.057 4290097332
-0.23688012 0.33092633 1.056 4290163125
-0.23487207 0.33092633 1.056 4290228918
-0.23308454 0.33123976 1.057 4290228918
-0.23129322 0.33155313 1.0580001 4290163125
-0.22928137 0.33155313 1.0580001 4290163125
-0.22748432 0.3318665 1.059 4290163125
-0.22547057 0.3318665 1.059 4290031793
-0.22345681 0.3318665 1.059 4290097586
-0.22144307 0.3318665 1.059 4290097586
-0.21942931 0.3318665 1.059 4290097586
-0.21721026 0.33155313 1.0580001 4289966000
-0.21499501 0.33123976 1.057 4289900207
-0.21278356 0.33092633 1.056 4289900207
-0.21077551 0.33092633 1.056 4289966000
-0.20876746 0.33092633 1.056 4290163379
-0.20636784 0.33029959 1.054 4290097586
-0.20436358 0.33029959 1.054 4290097586
-0.20235935 0.33029959 1.054 4290097586
-0.20054519 0.33061296 1.0550001 4290031793
-0.19891542 0.33123976 1.057 4289966000
-0.19690548 0.33123976 1.057 4290031793
-0.19489554 0.33123976 1.057 4290229172
-0.1927031 0.33092633 1.056 4289965746
-0.19051448 0.33061296 1.0550001 4290031539
-0.18850833 0.33061296 1.0550001 4290097332
-0.18650219 0.33061296 1.0550001 4290097332
-0.18449603 0.33061296 1.0550001 4289965746
-0.18231691 0.33029959 1.054 4289899953
-0.1801416 0.32998621 1.0530001 4289965746
-0.17813925 0.32998621 1.0530001 4289965746
-0.17613691 0.32998621 1.0530001 4289899953
-0.17429994 0.33029959 1.054 4289899953
-0.17229569 0.33029959 1.054 4289899953
-0.1701299 0.32998621 1.0530001 4289834160
-0.16812755 0.32998621 1.0530001 4289768367
-0.16596743 0.32967284 1.052 4289768367
-0.16427872 0.33029959 1.054 4289834160
-0.16227448 0.33029959 1.054 4289899953
-0.16027023 0.33029959 1.054 4289637035
-0.15841615 0.33061296 1.0550001 4289505449
-0.15641001 0.33061296 1.0550001 4289308070
-0.15440387 0.33061296 1.0550001 4289176482
-0.15225326 0.33029959 1.054 4288979103
-0.14996392 0.32967284 1.052 4288781722
-0.14810413 0.32998621 1.0530001 4288649625
-0.14610179 0.32998621 1.0530001 4288584086
-0.14409944 0.32998621 1.0530001 4287991949
-0.1420971 0.32998621 1.0530001 4288057742
-0.13982868 0.32935947 1.051 4287596937
-0.13756785 0.3287327 1.049 4287136386
-0.13544388 0.32841933 1.0480001 4287136386
-0.13306902 0.32747921 1.0450001 4286741628
-0.13095646 0.32716581 1.044 4285819758
-0.12909476 0.32747921 1.0450001 4284832863
-0.12710764 0.32747921 1.0450001 4284174931
-0.12500077 0.32716581 1.044 4283845966
-0.12301555 0.32716581 1.044 4283517003
-0.12103032 0.32716581 1.044 4283319624
-0.11893106 0.32685244 1.0430001 4283253831
-0.11694773 0.32685244 1.0430001 4283188038
-0.11485419 0.32653907 1.0420001 4283057222
-0.11287276 0.32653907 1.0420001 4283123015
-0.11089133 0.32653907 1.0420001 4282991429
-0.10901443 0.32685244 1.0430001 4283123015
-0.10703111 0.32685244 1.0430001 4283123013
-0.10514849 0.32716581 1.044 4283057474
-0.10316326 0.32716581 1.044 4283518025
-0.10117804 0.32716581 1.044 4284241747
-0.099192813 0.32716581 1.044 4284505432
-0.097207583 0.32716581 1.044 4284242774
-0.095222354 0.32716581 1.044 4284440154
-0.093237124 0.32716581 1.044 4284637792
-0.091251902 0.32716581 1.044 4284571999
-0.089266673 0.32716581 1.044 4284900964
-0.087281443 0.32716581 1.044 4284374363
-0.085296214 0.32716581 1.044 4284374363
-0.083310984 0.32716581 1.044 4284176984
-0.081403658 0.32747921 1.0450001 4284505949
-0.079340532 0.32716581 1.044 4285098086
-0.077355303 0.32716581 1.044 4285427051
-0.075370073 0.32716581 1.044 4285952625
-0.073384851 0.32716581 1.044 4286281590
-0.071331233 0.32685244 1.0430001 4286676348
-0.069347903 0.32685244 1.0430001 4287136899
-0.067364581 0.32685244 1.0430001 4287400071
-0.065381251 0.32685244 1.0430001 4287400073
-0.063458711 0.32716581 1.044 4287400589
-0.061473481 0.32716581 1.044 4287729556
-0.059545238 0.32747921 1.0450001 4288190107
-0.057558108 0.32747921 1.0450001 4288255900
-0.055570979 0.32747921 1.0450001 4288190364
-0.053583849 0.32747921 1.0450001 4288650915
-0.05159672 0.32747921 1.0450001 4288914087
-0.049657062 0.32779258 1.046 4288716708
-0.047668032 0.32779258 1.046 4288848294
-0.045722667 0.32810596 1.0470001 4288979880
-0.043773506 0.32841933 1.0480001 4288979880
-0.041820541 0.3287327 1.049 4289045673
-0.039863769 0.32904607 1.0500001 4289440174
-0.037867133 0.32904607 1.0500001 4289505967
-0.035904653 0.32935947 1.051 4289505197
-0.033873856 0.32904607 1.0500001 4289570990
-0.03187722 0.32904607 1.0500001 4289505967
-0.029880581 0.32904607 1.0500001 4289506224
-0.027883945 0.32904607 1.0500001 4289440431
-0.025911963 0.32935947 1.051 4289374638
-0.023936179 0.32967284 1.052 4289506224
-0.021935737 0.32967284 1.052 4289703603
-0.019954246 0.32998621 1.0530001 4289769396
-0.017934857 0.32967284 1.052 4289703603
-0.015949562 0.32998621 1.0530001 4289506224
-0.013933975 0.32967284 1.052 4289637810
-0.011933535 0.32967284 1.052 4289769396
-0.0099330945 0.32967284 1.052 4289703603
-0.0079401946 0.32998621 1.0530001 4289637810
-0.0059434921 0.33029959 1.054 4289572017
-0.003942986 0.33061296 1.0550001 4289637810
-0.0019368409 0.33061296 1.0550001 4289769396
6.9304078e-05 0.33061296 1.0550001 4289769396
0.0020754491 0.33061296 1.0550001 4289704116
0.0040815938 0.33061296 1.0550001 4289704116
0.006087739 0.33061296 1.0550001 4289769909
0.0081015565 0.33092633 1.056 4289769909
0.010109602 0.33092633 1.056 4289769909
0.012129124 0.33123976 1.057 4289769909
0.014139073 0.33123976 1.057 4289769909
0.016133742 0.33092633 1.056 4289704116
0.018158969 0.33123976 1.057 4289769909
0.020168915 0.33123976 1.057 4289769909
0.022199849 0.33155313 1.0580001 4289769909
0.024211697 0.33155313 1.0580001 4289769909
0.02619876 0.33123976 1.057 4289769909
0.028182022 0.33092633 1.056 4289769909
0.030190067 0.33092633 1.056 4289769909
0.032167625 0.33061296 1.0550001 4289769396
0.034141377 0.33029959 1.054 4289769396
0.03614562 0.33029959 1.054 4289835189
0.038149863 0.33029959 1.054 4289835189
0.040192202 0.33061296 1.0550001 4289900982
0.042238347 0.33092633 1.056 4289900982
0.044246394 0.33092633 1.056 4289900982
0.046254441 0.33092633 1.056 4289900982
0.048262488 0.33092633 1.056 4289966775
0.05022293 0.33061296 1.0550001 4289835189
0.052179568 0.33029959 1.054 4289835189
0.054132406 0.32998621 1.0530001 4289900982
0.056134745 0.32998621 1.0530001 4289835189
0.058137089 0.32998621 1.0530001 4289637810
0.060196541 0.33029959 1.054 4289506224
0.062259797 0.33061296 1.0550001 4289572017
0.064265944 0.33061296 1.0550001 4289703603
0.066334903 0.33092633 1.056 4289703603
0.06840767 0.33123976 1.057 4289703603
0.070350997 0.33092633 1.056 4289703603
0.072222002 0.33029959 1.054 4289703603
0.0740854 0.32967284 1.052 4289703603
0.076013513 0.32935947 1.051 4289637810
0.078086279 0.32967284 1.052 4289637810
0.080162846 0.32998621 1.0530001 4289572017
0.082165189 0.32998621 1.0530001 4289637810
0.084167525 0.32998621 1.0530001 4289703603
0.086088046 0.32967284 1.052 4289769396
0.088004746 0.32935947 1.051 4289769396
0.090003289 0.32935947 1.051 4289769396
0.092001826 0.32935947 1.051 4289769396
0.094000362 0.32935947 1.051 4289769396
0.095907561 0.32904607 1.0500001 4289835189
0.097904198 0.32904607 1.0500001 4289769396
0.099900834 0.32904607 1.0500001 4289769396
0.10209157 0.32967284 1.052 4289769396
0.10409201 0.32967284 1.052 4289703603
0.10619329 0.32998621 1.0530001 4289572017
0.10819563 0.32998621 1.0530001 4289572017
0.11009333 0.32967284 1.052 4289637810
0.11220031 0.32998621 1.0530001 4289572017
0.11431111 0.33029959 1.054 4289506224
0.11631536 0.33029959 1.054 4289506224
0.1183196 0.33029959 1.054 4289572017
0.12032384 0.33029959 1.054 4289703603
0.12221202 0.32998621 1.0530001 4289769396
0.12421437 0.32998621 1.0530001 4289637810
0.12621671 0.32998621 1.0530001 4289506224
0.12821905 0.32998621 1.0530001 4289637811
0.1302214 0.32998621 1.0530001 4289703604
0.13234931 0.33029959 1.054 4289703604
0.13435355 0.33029959 1.054 4289769397
0.1363578 0.33029959 1.054 4289769397
0.13823076 0.32998621 1.0530001 4289703604
0.1402331 0.32998621 1.0530001 4289637811
0.14237052 0.33029959 1.054 4289637811
0.14437477 0.33029959 1.054 4289572018
0.14624013 0.32998621 1.0530001 4289637811
0.14810169 0.32967284 1.052 4289637811
0.15010214 0.32967284 1.052 4289637811
0.15210257 0.32967284 1.052 4289637811
0.15410301 0.32967284 1.052 4289703604
0.15625183 0.32998621 1.0530001 4289769397
0.1581039 0.32967284 1.052 4289835190
0.16010433 0.32967284 1.052 4289769396
0.16195068 0.32935947 1.051 4289835189
0.16379322 0.32904607 1.0500001 4289835702
0.16563198 0.3287327 1.049 4289901495
0.16762671 0.3287327 1.049 4289901496
0.16962145 0.3287327 1.049 4289901496
0.17177978 0.32904607 1.0500001 4289901496
0.17394191 0.32935947 1.051 4289901496
0.17594045 0.32935947 1.051 4289901496
0.17793898 0.32935947 1.051 4289638323
0.17959513 0.3287327 1.049 4289704884
0.18141675 0.32841933 1.0480001 4289770675
0.18340957 0.32841933 1.0480001 4289178792
0.18575624 0.32904607 1.0500001 4288586653
0.18775287 0.32904607 1.0500001 4288586653
-0.35634768 0.33198857 1.0530001 4290757056
-0.3529993 0.33072746 1.049 4290427837
-0.35033533 0.3300969 1.0470001 4290756545
-0.34834442 0.3300969 1.0470001 4290756291
-0.34635347 0.3300969 1.0470001 4290756291
-0.34436256 0.3300969 1.0470001 4290756291
-0.34237161 0.3300969 1.0470001 4290822085
-0.34038067 0.3300969 1.0470001 4290822085
-0.33838975 0.3300969 1.0470001 4290756292
-0.33639881 0.3300969 1.0470001 4290756292
-0.33408847 0.32978162 1.046 4290822087
-0.33209944 0.32978162 1.046 4290756292
-0.33011043 0.32978162 1.046 4290690499
-0.32812139 0.32978162 1.046 4290624706
-0.32644415 0.3300969 1.0470001 4290558913
-0.3244532 0.3300969 1.0470001 4290558912
-0.32246229 0.3300969 1.0470001 4290624705
-0.32016528 0.32978162 1.046 4290624705
-0.31787208 0.32946634 1.0450001 4290493632
-0.31588495 0.32946634 1.0450001 4290559425
-0.31419817 0.32978162 1.046 4290624705
-0.31250763 0.3300969 1.0470001 4290690498
-0.31051669 0.3300969 1.0470001 4290690498
-0.30852577 0.3300969 1.0470001 4290690498
-0.30624205 0.32978162 1.046 4290624705
-0.30425301 0.32978162 1.046 4290690241
-0.30255297 0.3300969 1.0470001 4290821827
-0.30056202 0.3300969 1.0470001 4290756032
-0.29885626 0.33041218 1.0480001 4290755262
-0.29686344 0.33041218 1.0480001 4290689723
-0.29487062 0.33041218 1.0480001 4290623930
-0.29287776 0.33041218 1.0480001 4290558137
-0.29144007 0.33104274 1.0500001 4290558135
-0.28916776 0.33072746 1.049 4290623928
-0.28717303 0.33072746 1.049 4290558137
-0.28490645 0.33041218 1.0480001 4289899953
-0.28318357 0.33072746 1.049 4286741889
-0.28118882 0.33072746 1.049 4286215545
-0.27946025 0.33104274 1.0500001 4287399819
-0.27772784 0.33135802 1.051 4290623676
-0.27599165 0.33167329 1.052 4290623676
-0.27399123 0.33167329 1.052 4290557883
-0.27250788 0.33230385 1.054 4290426297
-0.27076027 0.33261913 1.0550001 4290426297
-0.2684994 0.33230385 1.054 4290360504
-0.26649514 0.33230385 1.054 4290360504
-0.2644909 0.33230385 1.054 4290294711
-0.26248667 0.33230385 1.054 4290360504
-0.26048243 0.33230385 1.054 4290426297
-0.25823292 0.33198857 1.0530001 4290492090
-0.25623059 0.33198857 1.0530001 4290294965
-0.25422826 0.33198857 1.0530001 4290294965
-0.25246546 0.33230385 1.054 4290294965
-0.2506988 0.33261913 1.0550001 4290360758
-0.2489284 0.33293441 1.056 4290426551
-0.24715418 0.33324969 1.057 4290426551
-0.24514423 0.33324969 1.057 4290360758
-0.24313429 0.33324969 1.057 4290294965
-0.24089621 0.33293441 1.056 4290294965
-0.23866196 0.33261913 1.0550001 4290229172
-0.2366558 0.33261913 1.0550001 4290229172
-0.23464966 0.33261913 1.0550001 4290229172
-0.23264351 0.33261913 1.0550001 4290294965
-0.23063737 0.33261913 1.0550001 4290294965
-0.22884794 0.33293441 1.056 4290294965
-0.22683989 0.33293441 1.056 4290294965
-0.22504476 0.33324969 1.057 4290163379
-0.2230348 0.33324969 1.057 4290163379
-0.22102486 0.33324969 1.057 4290097586
-0.2188077 0.33293441 1.056 4290163379
-0.21679965 0.33293441 1.056 4290163379
-0.21458821 0.33261913 1.0550001 4290163379
-0.21217906 0.33198857 1.0530001 4290097586
-0.21017672 0.33198857 1.0530001 4290031793
-0.20797668 0.33167329 1.052 4290163379
-0.20597625 0.33167329 1.052 4290097586
-0.20416971 0.33198857 1.0530001 4290097586
-0.20216736 0.33198857 1.0530001 4290097586
-0.2003551 0.33230385 1.054 4290097586
-0.19853905 0.33261913 1.0550001 4289966000
-0.19653291 0.33261913 1.0550001 4289966000
-0.19452676 0.33261913 1.0550001 4290097586
-0.19233812 0.33230385 1.054 4290031539
-0.19033389 0.33230385 1.054 4290031539
-0.18815097 0.33198857 1.0530001 4290097332
-0.1863254 0.33230385 1.054 4290031539
-0.18414629 0.33198857 1.0530001 4289965746
-0.18197095 0.33167329 1.052 4289965746
-0.17997052 0.33167329 1.052 4289965746
-0.17797008 0.33167329 1.052 4289965746
-0.17596965 0.33167329 1.052 4289899953
-0.17396919 0.33167329 1.052 4289768367
-0.17196876 0.33167329 1.052 4289636781
-0.16980676 0.33135802 1.051 4289768367
-0.16764855 0.33104274 1.0500001 4289834160
-0.16596743 0.33167329 1.052 4289768367
-0.163967 0.33167329 1.052 4289768367
-0.16196656 0.33167329 1.052 4289899953
-0.15996611 0.33167329 1.052 4289768367
-0.15811583 0.33198857 1.0530001 4289768367
-0.15611349 0.33198857 1.0530001 4289636781
-0.15411116 0.33198857 1.0530001 4289308070
-0.15196435 0.33167329 1.052 4289044898
-0.14967881 0.33104274 1.0500001 4288913310
-0.14768218 0.33104274 1.0500001 4288715933
-0.14568554 0.33104274 1.0500001 4288452759
-0.1436889 0.33104274 1.0500001 4288254867
-0.14182721 0.33135802 1.051 4287925902
-0.13969563 0.33104274 1.0500001 4287465353
-0.1374367 0.33041218 1.0480001 4287333767
-0.13505615 0.32946634 1.0450001 4287267974
-0.13294169 0.32915106 1.044 4286939009
-0.13083102 0.32883579 1.0430001 4286281079
-0.12884769 0.32883579 1.0430001 4285688942
-0.12686437 0.32883579 1.0430001 4284899426
-0.12488104 0.32883579 1.0430001 4284570461
-0.12277988 0.32852051 1.0420001 4284044117
-0.12079846 0.32852051 1.0420001 4283649359
-0.11881704 0.32852051 1.0420001 4283386187
-0.11683561 0.32852051 1.0420001 4283320394
-0.11485419 0.32852051 1.0420001 4283254603
-0.11287276 0.32852051 1.0420001 4283254603
-0.11089133 0.32852051 1.0420001 4283057224
-0.10890991 0.32852051 1.0420001 4283254601
-0.10692849 0.32852051 1.0420001 4283452493
-0.10494706 0.32852051 1.0420001 4283715663
-0.10296564 0.32852051 1.0420001 4284176214
-0.10098422 0.32852051 1.0420001 4284834142
-0.099002786 0.32852051 1.0420001 4285557865
-0.097114474 0.32883579 1.0430001 4285953395
-0.095131144 0.32883579 1.0430001 4286084727
-0.093147822 0.32883579 1.0430001 4286348412
-0.091164492 0.32883579 1.0430001 4286743170
-0.089095667 0.32852051 1.0420001 4286940549
-0.087030634 0.32820523 1.041 4287071622
-0.085051112 0.32820523 1.041 4287334794
-0.083151393 0.32852051 1.0420001 4287795345
-0.081169963 0.32852051 1.0420001 4288190103
-0.079264536 0.32883579 1.0430001 4288058517
-0.077281207 0.32883579 1.0430001 4288190103
-0.075297885 0.32883579 1.0430001 4288255896
-0.073244266 0.32852051 1.0420001 4288321689
-0.071331233 0.32883579 1.0430001 4288387482
-0.069281414 0.32852051 1.0420001 4288453275
-0.067299992 0.32852051 1.0420001 4288519068
-0.06531857 0.32852051 1.0420001 4288584861
-0.06333714 0.32852051 1.0420001 4288584863
-0.061355717 0.32852051 1.0420001 4288716451
-0.059431273 0.32883579 1.0430001 4288782244
-0.057503026 0.32915106 1.044 4288848037
-0.055517796 0.32915106 1.044 4288914087
-0.053532571 0.32915106 1.044 4289045673
-0.051547341 0.32915106 1.044 4289111466
-0.049562115 0.32915106 1.044 4289045673
-0.047622461 0.32946634 1.0450001 4289308845
-0.045635331 0.32946634 1.0450001 4289243052
-0.04368997 0.32978162 1.046 4289308588
-0.041740805 0.3300969 1.0470001 4289440174
-0.03978784 0.33041218 1.0480001 4289636783
-0.037795004 0.33041218 1.0480001 4289570990
-0.035802171 0.33041218 1.0480001 4289570990
-0.033873856 0.33104274 1.0500001 4289636783
-0.03187722 0.33104274 1.0500001 4289637553
-0.029880581 0.33104274 1.0500001 4289571760
-0.027883945 0.33104274 1.0500001 4289505967
-0.025911963 0.33135802 1.051 4289505967
-0.023936179 0.33167329 1.052 4289637553
-0.021935737 0.33167329 1.052 4289769139
-0.019954246 0.33198857 1.0530001 4289769139
-0.017934857 0.33167329 1.052 4289769139
-0.015919268 0.33135802 1.051 4289769139
-0.01392073 0.33135802 1.051 4289703346
-0.011922192 0.33135802 1.051 4289703346
-0.0099142101 0.33104274 1.0500001 4289769139
-0.0079251137 0.33135802 1.051 4289769139
-0.0059322137 0.33167329 1.052 4289769139
-0.0039317738 0.33167329 1.052 4289834932
-0.0019331692 0.33198857 1.0530001 4289769396
6.9172696e-05 0.33198857 1.0530001 4289966775
0.0020715145 0.33198857 1.0530001 4289900982
0.0040738569 0.33198857 1.0530001 4289769396
0.0060761985 0.33198857 1.0530001 4289703603
0.008086212 0.33230385 1.054 4289769396
0.010090455 0.33230385 1.054 4289769396
0.012106174 0.33261913 1.0550001 4289835189
0.014112319 0.33261913 1.0550001 4289835189
0.016118465 0.33261913 1.0550001 4289835189
0.01812461 0.33261913 1.0550001 4289769396
0.020130755 0.33261913 1.0550001 4289769396
0.022157881 0.33293441 1.056 4289769396
0.024165928 0.33293441 1.056 4289835189
0.026149189 0.33261913 1.0550001 4289900982
0.028128646 0.33230385 1.054 4289835189
0.03013289 0.33230385 1.054 4289769396
0.032137133 0.33230385 1.054 4289900982
0.034108985 0.33198857 1.0530001 4289966775
0.036077034 0.33167329 1.052 4289966775
0.038077474 0.33167329 1.052 4289966775
0.040116012 0.33198857 1.0530001 4289900982
0.04215835 0.33230385 1.054 4289835189
0.044204492 0.33261913 1.0550001 4289835189
0.046210639 0.33261913 1.0550001 4289835189
0.048216783 0.33261913 1.0550001 4289769396
0.050175324 0.33230385 1.054 4289769396
0.052130062 0.33198857 1.0530001 4289835189
0.054080997 0.33167329 1.052 4289769396
0.056081437 0.33167329 1.052 4289769396
0.058081876 0.33167329 1.052 4289703603
0.060082316 0.33167329 1.052 4289637810
0.062141772 0.33198857 1.0530001 4289572017
0.064144112 0.33198857 1.0530001 4289637810
0.066272087 0.33261913 1.0550001 4289637810
0.068278231 0.33261913 1.0550001 4289637810
0.070217758 0.33230385 1.054 4289637810
0.072084963 0.33167329 1.052 4289637810
0.074014977 0.33135802 1.051 4289703603
0.07594119 0.33104274 1.0500001 4289769396
0.078012057 0.33135802 1.051 4289769396
0.080010593 0.33135802 1.051 4289703603
0.082009129 0.33135802 1.051 4289703603
0.084007673 0.33135802 1.051 4289769396
0.086006209 0.33135802 1.051 4289769396
0.087921016 0.33104274 1.0500001 4289835189
0.089832015 0.33072746 1.049 4289835189
0.091826752 0.33072746 1.049 4289835189
0.093821488 0.33072746 1.049 4289835189
0.095816217 0.33072746 1.049 4289900982
0.097810954 0.33072746 1.049 4289637810
0.099900834 0.33104274 1.0500001 4289966775
0.10189747 0.33104274 1.0500001 4290098361
0.10389411 0.33104274 1.0500001 4289374638
0.10589075 0.33104274 1.0500001 4289572017
0.10799014 0.33135802 1.051 4290295740
0.10998867 0.33135802 1.051 4289572017
0.11209377 0.33167329 1.052 4289703603
0.11420266 0.33198857 1.0530001 4289308845
0.116205 0.33198857 1.0530001 4289966775
0.11820734 0.33198857 1.0530001 4289572017
0.12009553 0.33167329 1.052 4289637810
0.12209597 0.33167329 1.052 4289572017
0.12409641 0.33167329 1.052 4289835189
0.12609684 0.33167329 1.052 4289703603
0.1280973 0.33167329 1.052 4289703604
0.12997405 0.33135802 1.051 4289769397
0.1319726 0.33135802 1.051 4289769397
0.1340986 0.33167329 1.052 4289703604
0.13609906 0.33167329 1.052 4289703604
0.13796821 0.33135802 1.051 4289835190
0.13996676 0.33135802 1.051 4289835190
0.14196528 0.33135802 1.051 4289835190
0.14396383 0.33135802 1.051 4289966776
0.14596237 0.33135802 1.051 4289835190
0.1479609 0.33135802 1.051 4289703604
0.14995944 0.33135802 1.051 4289637811
0.15195799 0.33135802 1.051 4289703604
0.15395652 0.33135802 1.051 4289769397
0.15595506 0.33135802 1.051 4289835190
0.15795361 0.33135802 1.051 4289769397
0.15979995 0.33104274 1.0500001 4289769396
0.16179658 0.33104274 1.0500001 4289900982
0.16363724 0.33072746 1.049 4289835702
0.16547407 0.33041218 1.0480001 4289835702
0.16746691 0.33041218 1.0480001 4289769910
0.16945975 0.33041218 1.0480001 4289769910
0.17145257 0.33041218 1.0480001 4289835703
0.17361091 0.33072746 1.049 4289901496
0.17560565 0.33072746 1.049 4289967288
0.17743108 0.33041218 1.0480001 4289572530
0.17925271 0.3300969 1.0470001 4290033849
0.18107052 0.32978162 1.046 4289507503
0.18305956 0.32978162 1.046 4289639343
0.18557933 0.33072746 1.049 4288718239
0.18757407 0.33072746 1.049 4288126102
-0.35668612 0.33430809 1.054 4290625468
-0.3529993 0.33272219 1.049 4290954435
-0.35033533 0.33208784 1.0470001 4291085508
-0.34834442 0.33208784 1.0470001 4290690752
-0.34635347 0.33208784 1.0470001 4290558912
-0.34436256 0.33208784 1.0470001 4290822084
-0.34237161 0.33208784 1.0470001 4290887877
-0.34038067 0.33208784 1.0470001 4290690499
-0.33838975 0.33208784 1.0470001 4290624706
-0.33607751 0.33177066 1.046 4290822085
-0.33408847 0.33177066 1.046 4290822085
-0.33209944 0.33177066 1.046 4290822085
-0.33011043 0.33177066 1.046 4290756292
-0.32812139 0.33177066 1.046 4290690498
-0.32644415 0.33208784 1.0470001 4290690498
-0.3244532 0.33208784 1.0470001 4290690752
-0.32246229 0.33208784 1.0470001 4290690752
-0.32016528 0.33177066 1.046 4290690752
-0.31817624 0.33177066 1.046 4290624705
-0.3161872 0.33177066 1.046 4290559425
-0.31449854 0.33208784 1.0470001 4290624705
-0.31250763 0.33208784 1.0470001 4290558912
-0.31051669 0.33208784 1.0470001 4290558912
-0.30852577 0.33208784 1.0470001 4290558912
-0.30624205 0.33177066 1.046 4290558655
-0.30425301 0.33177066 1.046 4290558653
-0.30226398 0.33177066 1.046 4290756032
-0.30056202 0.33208784 1.0470001 4290756032
-0.29885626 0.33240503 1.0480001 4290755516
-0.29686344 0.33240503 1.0480001 4290689723
-0.29487062 0.33240503 1.0480001 4290689723
-0.29287776 0.33240503 1.0480001 4290689723
-0.29088494 0.33240503 1.0480001 4290689721
-0.28916776 0.33272219 1.049 4290689721
-0.28689927 0.33240503 1.0480001 4288978851
-0.28490645 0.33240503 1.0480001 4285952373
-0.2829136 0.33240503 1.0480001 4286149752
-0.28118882 0.33272219 1.049 4285162857
-0.27946025 0.33303937 1.0500001 4285097064
-0.27772784 0.33335659 1.051 4288320921
-0.2757293 0.33335659 1.051 4290360504
-0.27399123 0.33367375 1.052 4290426297
-0.27199078 0.33367375 1.052 4290426297
-0.26999032 0.33367375 1.052 4290492090
-0.26773515 0.33335659 1.051 4290492090
-0.26598945 0.33367375 1.052 4290426297
-0.263989 0.33367375 1.052 4290426297
-0.26198858 0.33367375 1.052 4290426297
-0.25974098 0.33335659 1.051 4290492090
-0.25774246 0.33335659 1.051 4290557883
-0.25550061 0.33303937 1.0500001 4290492344
-0.25374538 0.33335659 1.051 4290492344
-0.25198638 0.33367375 1.052 4290426551
-0.25022358 0.33399093 1.0530001 4290426551
-0.24822122 0.33399093 1.0530001 4290360758
-0.2464527 0.33430809 1.054 4290360758
-0.24468039 0.33462527 1.0550001 4290360758
-0.24267425 0.33462527 1.0550001 4290294965
-0.2406681 0.33462527 1.0550001 4290360758
-0.23843573 0.33430809 1.054 4290294965
-0.23643148 0.33430809 1.054 4290229172
-0.23442724 0.33430809 1.054 4290294965
-0.23242299 0.33430809 1.054 4290294965
-0.23020014 0.33399093 1.0530001 4290360758
-0.22841451 0.33430809 1.054 4290360758
-0.22641027 0.33430809 1.054 4290360758
-0.22461894 0.33462527 1.0550001 4290294965
-0.2226128 0.33462527 1.0550001 4290229172
-0.22060664 0.33462527 1.0550001 4290163379
-0.2186005 0.33462527 1.0550001 4290097586
-0.21638905 0.33430809 1.054 4290097586
-0.21418141 0.33399093 1.0530001 4290097586
-0.21157457 0.33303937 1.0500001 4290031793
-0.20957793 0.33303937 1.0500001 4290031793
-0.20777899 0.33335659 1.051 4290294965
-0.20578046 0.33335659 1.051 4290163379
-0.2039758 0.33367375 1.052 4290163379
-0.20197536 0.33367375 1.052 4290097586
-0.20016502 0.33399093 1.0530001 4289966000
-0.19835086 0.33430809 1.054 4289900207
-0.19616033 0.33399093 1.0530001 4289966000
-0.19415799 0.33399093 1.0530001 4290097586
-0.19197316 0.33367375 1.052 4290031539
-0.18997273 0.33367375 1.052 4290031539
-0.18797228 0.33367375 1.052 4290097332
-0.18597184 0.33367375 1.052 4290097332
-0.18397141 0.33367375 1.052 4290031539
-0.181798 0.33335659 1.051 4289965746
-0.17962837 0.33303937 1.0500001 4289899953
-0.17780091 0.33335659 1.051 4289899953
-0.17580238 0.33335659 1.051 4289965746
-0.17380384 0.33335659 1.051 4289834160
-0.17164183 0.33303937 1.0500001 4289768367
-0.16932206 0.33240503 1.0480001 4289834160
-0.16732922 0.33240503 1.0480001 4289899953
-0.16533639 0.33240503 1.0480001 4289834160
-0.16318768 0.33208784 1.0470001 4289834160
-0.16119675 0.33208784 1.0470001 4289899953
-0.15950994 0.33272219 1.049 4289834160
-0.15766536 0.33303937 1.0500001 4289768367
-0.15566872 0.33303937 1.0500001 4289636781
-0.15381844 0.33335659 1.051 4289505195
-0.15167545 0.33303937 1.0500001 4289505449
-0.14939371 0.33240503 1.0480001 4289505449
-0.14740089 0.33240503 1.0480001 4289308070
-0.14540805 0.33240503 1.0480001 4288979105
-0.14341521 0.33240503 1.0480001 4289044385
-0.14128743 0.33208784 1.0470001 4288649627
-0.13916346 0.33177066 1.046 4288123283
-0.13717443 0.33177066 1.046 4287860111
-0.13492692 0.33113629 1.044 4287728525
-0.132687 0.33050194 1.0420001 4287465353
-0.13058014 0.33018476 1.041 4287004802
-0.12860063 0.33018476 1.041 4286675837
-0.12649946 0.3298676 1.0400001 4286412665
-0.12452184 0.3298676 1.0400001 4285952114
-0.12254421 0.3298676 1.0400001 4285359977
-0.1205666 0.3298676 1.0400001 4284767840
-0.11870301 0.33018476 1.041 4284438877
-0.11661135 0.3298676 1.0400001 4284307291
-0.11474396 0.33018476 1.041 4284241498
-0.11276444 0.33018476 1.041 4284241498
-0.11078492 0.33018476 1.041 4284241498
-0.1088054 0.33018476 1.041 4284504670
-0.10672324 0.3298676 1.0400001 4284833892
-0.10474563 0.3298676 1.0400001 4285163111
-0.102768 0.3298676 1.0400001 4285426283
-0.10079038 0.3298676 1.0400001 4285821041
-0.098907776 0.33018476 1.041 4286281592
-0.096928254 0.33018476 1.041 4286610557
-0.095039941 0.33050194 1.0420001 4286676866
-0.092969209 0.33018476 1.041 4286808965
-0.090989687 0.33018476 1.041 4287071883
-0.088924654 0.3298676 1.0400001 4287269516
-0.086863428 0.32955042 1.039 4287466384
-0.08480601 0.3292332 1.0380001 4287663761
-0.082911983 0.32955042 1.039 4287992726
-0.081014164 0.3298676 1.0400001 4288321691
-0.079036541 0.3298676 1.0400001 4288453277
-0.077133022 0.33018476 1.041 4288519068
-0.0751535 0.33018476 1.041 4288584863
-0.073173977 0.33018476 1.041 4288650654
-0.071194455 0.33018476 1.041 4288716449
-0.069214933 0.33018476 1.041 4288716447
-0.067170814 0.3298676 1.0400001 4288782242
-0.06525588 0.33018476 1.041 4288848035
-0.063276358 0.33018476 1.041 4288913830
-0.061296832 0.33018476 1.041 4289045416
-0.059374291 0.33050194 1.0420001 4289111209
-0.057392869 0.33050194 1.0420001 4289111209
-0.055411443 0.33050194 1.0420001 4289111466
-0.053430021 0.33050194 1.0420001 4289243052
-0.05149797 0.3308191 1.0430001 4289308845
-0.04951464 0.3308191 1.0430001 4289243052
-0.047576886 0.33113629 1.044 4289440431
-0.04559166 0.33113629 1.044 4289374638
-0.043648202 0.3314535 1.0450001 4289440174
-0.041661073 0.3314535 1.0450001 4289505967
-0.039673943 0.3314535 1.0450001 4289636783
-0.037722874 0.33177066 1.046 4289570990
-0.035733845 0.33177066 1.046 4289636783
-0.033809338 0.33240503 1.0480001 4289768369
-0.03178614 0.33208784 1.0470001 4289703346
-0.029795209 0.33208784 1.0470001 4289637553
-0.027804276 0.33208784 1.0470001 4289571760
-0.025862655 0.33272219 1.049 4289637553
-0.023913424 0.33335659 1.051 4289769139
-0.021914884 0.33335659 1.051 4289900725
-0.019916346 0.33335659 1.051 4289900725
-0.017917808 0.33335659 1.051 4289900725
-0.015904121 0.33303937 1.0500001 4289703346
-0.013907485 0.33303937 1.0500001 4289703346
-0.011910847 0.33303937 1.0500001 4289703346
-0.0099047683 0.33272219 1.049 4289703346
-0.0079100328 0.33272219 1.049 4289769139
-0.0059209359 0.33303937 1.0500001 4289769139
-0.0039242986 0.33303937 1.0500001 4289769139
-0.0019294975 0.33335659 1.051 4289769139
6.9041314e-05 0.33335659 1.051 4289835189
0.0020656129 0.33303937 1.0500001 4289769396
0.0040622503 0.33303937 1.0500001 4289703603
0.0060646576 0.33335659 1.051 4289769396
0.0080708684 0.33367375 1.052 4289769396
0.010071308 0.33367375 1.052 4289769396
0.012083224 0.33399093 1.0530001 4289769396
0.014085566 0.33399093 1.0530001 4289703603
0.016087908 0.33399093 1.0530001 4289769396
0.01809025 0.33399093 1.0530001 4289769396
0.020111673 0.33430809 1.054 4289703603
0.022115916 0.33430809 1.054 4289703603
0.024120159 0.33430809 1.054 4289769396
0.026099617 0.33399093 1.0530001 4289835189
0.02810196 0.33399093 1.0530001 4289769396
0.030104302 0.33399093 1.0530001 4289703603
0.032106642 0.33399093 1.0530001 4289769396
0.03407659 0.33367375 1.052 4289769396
0.036077034 0.33367375 1.052 4289835189
0.038077474 0.33367375 1.052 4289900982
0.040077914 0.33367375 1.052 4289835189
0.042118352 0.33399093 1.0530001 4289835189
0.044120695 0.33399093 1.0530001 4289835189
0.046123035 0.33399093 1.0530001 4289835189
0.048079673 0.33367375 1.052 4289835189
0.050080113 0.33367375 1.052 4289835189
0.052031051 0.33335659 1.051 4289835189
0.054029591 0.33335659 1.051 4289835189
0.056028128 0.33335659 1.051 4289835189
0.058026668 0.33335659 1.051 4289769396
0.060082316 0.33367375 1.052 4289769396
0.062141772 0.33399093 1.0530001 4289769396
0.064083204 0.33367375 1.052 4289769396
0.06608364 0.33367375 1.052 4289703603
0.068148792 0.33399093 1.0530001 4289637810
0.070151135 0.33399093 1.0530001 4289637810
0.07201644 0.33335659 1.051 4289637810
0.073944554 0.33303937 1.0500001 4289703603
0.07594119 0.33303937 1.0500001 4289769396
0.077937827 0.33303937 1.0500001 4289769396
0.079934463 0.33303937 1.0500001 4289637810
0.081931099 0.33303937 1.0500001 4289637810
0.083927736 0.33303937 1.0500001 4289703603
0.085842542 0.33272219 1.049 4289769396
0.087753542 0.33240503 1.0480001 4289769396
0.089746378 0.33240503 1.0480001 4289835189
0.091651671 0.33208784 1.0470001 4289835189
0.093642607 0.33208784 1.0470001 4289835189
0.095633537 0.33208784 1.0470001 4289769396
0.09771771 0.33240503 1.0480001 4290164154
0.09980569 0.33272219 1.049 4289900982
0.10180043 0.33272219 1.049 4289769396
0.10379516 0.33272219 1.049 4289703603
0.1057899 0.33272219 1.049 4288190364
0.10778464 0.33272219 1.049 4287532434
0.10988402 0.33303937 1.0500001 4289045673
0.11198721 0.33335659 1.051 4290098361
0.11398575 0.33335659 1.051 4289900982
0.11598429 0.33335659 1.051 4289703603
0.11798283 0.33335659 1.051 4289572017
0.11998137 0.33335659 1.051 4289900982
0.12197991 0.33335659 1.051 4289637810
0.12386049 0.33303937 1.0500001 4289835189
0.12597698 0.33335659 1.051 4289966775
0.12785375 0.33303937 1.0500001 4289769397
0.12985039 0.33303937 1.0500001 4289835190
0.13184704 0.33303937 1.0500001 4289835190
0.13384368 0.33303937 1.0500001 4289703604
0.13584031 0.33303937 1.0500001 4289769397
0.13783695 0.33303937 1.0500001 4289835190
0.13983358 0.33303937 1.0500001 4289900983
0.14169514 0.33272219 1.049 4289835190
0.14368989 0.33272219 1.049 4289966776
0.14568461 0.33272219 1.049 4289900983
0.14767936 0.33272219 1.049 4289835190
0.14967409 0.33272219 1.049 4289769397
0.15166883 0.33272219 1.049 4289835190
0.15366356 0.33272219 1.049 4289900983
0.15580668 0.33303937 1.0500001 4289900983
0.15765303 0.33272219 1.049 4289835190
0.15964776 0.33272219 1.049 4289769396
0.1614884 0.33240503 1.0480001 4289835189
0.16348124 0.33240503 1.0480001 4289835702
0.16531618 0.33208784 1.0470001 4289835702
0.16730711 0.33208784 1.0470001 4289769910
0.16913635 0.33177066 1.046 4289769910
0.17128898 0.33208784 1.0470001 4289769910
0.17327991 0.33208784 1.0470001 4289835703
0.17527084 0.33208784 1.0470001 4289769909
0.17709246 0.33177066 1.046 4289835700
0.1789103 0.3314535 1.0450001 4289639091
0.18072431 0.33113629 1.044 4289573550
0.18270953 0.33113629 1.044 4289441964
0.18540241 0.33240503 1.0480001 4288718239
0.18739524 0.33240503 1.0480001 4288586652
-0.35702449 0.33663142 1.0550001 4290822588
-0.35333583 0.33503601 1.0500001 4290559162
-0.35000074 0.3337597 1.046 4290690237
-0.3480117 0.3337597 1.046 4290953409
-0.34602267 0.3337597 1.046 4291084997
-0.34403363 0.3337597 1.046 4290953411
-0.34204459 0.3337597 1.046 4290887618
-0.33940539 0.33312154 1.044 4291019206
-0.33742017 0.33312154 1.044 4291150792
-0.33543494 0.33312154 1.044 4291150792
-0.33344969 0.33312154 1.044 4290821827
-0.33146447 0.33312154 1.044 4290821827
-0.32979485 0.33344063 1.0450001 4290821827
-0.32780772 0.33344063 1.0450001 4290756032
-0.32613236 0.3337597 1.046 4290756032
-0.32414332 0.3337597 1.046 4290756032
-0.32215428 0.3337597 1.046 4290690239
-0.31985921 0.33344063 1.0450001 4290624957
-0.31787208 0.33344063 1.0450001 4290690752
-0.31588495 0.33344063 1.0450001 4290624959
-0.31419817 0.3337597 1.046 4290624446
-0.31250763 0.33407879 1.0470001 4290558653
-0.31022012 0.3337597 1.046 4290492860
-0.30823109 0.3337597 1.046 4290492860
-0.3059493 0.33344063 1.0450001 4290623676
-0.30396217 0.33344063 1.0450001 4290623676
-0.30197504 0.33344063 1.0450001 4290821055
-0.29998791 0.33344063 1.0450001 4290821309
-0.29828593 0.3337597 1.046 4290755516
-0.29658017 0.33407879 1.0470001 4290689723
-0.29487062 0.33439785 1.0480001 4290689723
-0.29315725 0.33471695 1.049 4290689723
-0.29116249 0.33471695 1.049 4290755514
-0.28916776 0.33471695 1.049 4290755514
-0.28689927 0.33439785 1.0480001 4285886580
-0.28463456 0.33407879 1.0470001 4288715679
-0.2829136 0.33439785 1.0480001 4285031271
-0.28092077 0.33439785 1.0480001 4284241755
-0.27946025 0.33503601 1.0500001 4285162857
-0.27772784 0.33535513 1.051 4286215545
-0.2757293 0.33535513 1.051 4290952641
-0.27373075 0.33535513 1.051 4290426297
-0.27199078 0.3356742 1.052 4290426297
-0.2697337 0.33535513 1.051 4290492090
-0.26773515 0.33535513 1.051 4290492090
-0.26598945 0.3356742 1.052 4290492090
-0.263989 0.3356742 1.052 4290492090
-0.26198858 0.3356742 1.052 4290426297
-0.25974098 0.33535513 1.051 4290492090
-0.25774246 0.33535513 1.051 4290557883
-0.25550061 0.33503601 1.0500001 4290623930
-0.25374538 0.33535513 1.051 4290558137
-0.25198638 0.3356742 1.052 4290492344
-0.25022358 0.33599326 1.0530001 4290426551
-0.24822122 0.33599326 1.0530001 4290360758
-0.2464527 0.33631235 1.054 4290360758
-0.24444845 0.33631235 1.054 4290360758
-0.24244422 0.33631235 1.054 4290426551
-0.24043997 0.33631235 1.054 4290426551
-0.23820952 0.33599326 1.0530001 4290426551
-0.23598285 0.3356742 1.052 4290360758
-0.23376 0.33535513 1.051 4290426551
-0.23176146 0.33535513 1.051 4290426551
-0.22976293 0.33535513 1.051 4290492344
-0.22798109 0.3356742 1.052 4290426551
-0.22598065 0.3356742 1.052 4290426551
-0.22419313 0.33599326 1.0530001 4290426551
-0.22219078 0.33599326 1.0530001 4290360758
-0.22018844 0.33599326 1.0530001 4290229172
-0.2181861 0.33599326 1.0530001 4290163379
-0.21577315 0.33535513 1.051 4290163379
-0.21357121 0.33503601 1.0500001 4290163379
-0.21117157 0.33439785 1.0480001 4290163379
-0.20917873 0.33439785 1.0480001 4290163379
-0.2075813 0.33503601 1.0500001 4290360758
-0.20578046 0.33535513 1.051 4290229172
-0.20378192 0.33535513 1.051 4290229172
-0.20178337 0.33535513 1.051 4290097586
-0.19997492 0.3356742 1.052 4289900207
-0.19797449 0.3356742 1.052 4289768621
-0.19597404 0.3356742 1.052 4289900207
-0.19378923 0.33535513 1.051 4290097586
-0.19179069 0.33535513 1.051 4289899953
-0.18979214 0.33535513 1.051 4290031539
-0.18779361 0.33535513 1.051 4290097332
-0.18579507 0.33535513 1.051 4290097332
-0.18379653 0.33535513 1.051 4290031539
-0.18162501 0.33503601 1.0500001 4289965746
-0.17962837 0.33503601 1.0500001 4289899953
-0.17763174 0.33503601 1.0500001 4289899953
-0.17546782 0.33471695 1.049 4290031539
-0.17330772 0.33439785 1.0480001 4289899953
-0.17115141 0.33407879 1.0470001 4289899953
-0.16916049 0.33407879 1.0470001 4289965746
-0.16716956 0.33407879 1.0470001 4289965746
-0.16517861 0.33407879 1.0470001 4289899953
-0.16318768 0.33407879 1.0470001 4289899953
-0.16135071 0.33439785 1.0480001 4289965746
-0.15935789 0.33439785 1.0480001 4289965746
-0.15736505 0.33439785 1.0480001 4289899953
-0.15552047 0.33471695 1.049 4289768367
-0.15337938 0.33439785 1.0480001 4289702574
-0.15109764 0.3337597 1.046 4289834160
-0.14910862 0.3337597 1.046 4289899953
-0.14711958 0.3337597 1.046 4289702574
-0.14513054 0.3337597 1.046 4289439402
-0.14314152 0.3337597 1.046 4289636781
-0.14101754 0.33344063 1.0450001 4289373609
-0.13889737 0.33312154 1.044 4288978851
-0.13691215 0.33312154 1.044 4288781472
-0.13466842 0.33248338 1.0420001 4288649886
-0.13255967 0.33216429 1.041 4288518300
-0.13032928 0.33152613 1.039 4288255128
-0.12823002 0.33120704 1.0380001 4288057749
-0.12613457 0.33088794 1.0370001 4287728784
-0.12416264 0.33088794 1.0370001 4287465612
-0.12219073 0.33088794 1.0370001 4287136647
-0.12033474 0.33120704 1.0380001 4286939268
-0.11847495 0.33152613 1.039 4287005063
-0.1163871 0.33120704 1.0380001 4287070856
-0.11452351 0.33152613 1.039 4287202442
-0.11254779 0.33152613 1.039 4287268235
-0.11057207 0.33152613 1.039 4286873477
-0.10859635 0.33152613 1.039 4287070856
-0.10662062 0.33152613 1.039 4287268235
-0.10454419 0.33120704 1.0380001 4287334026
-0.10257037 0.33120704 1.0380001 4287334026
