# .PCD v0.7 - Point Cloud Data file format
VERSION 0.7
FIELDS x y z intensity
SIZE 4 4 4 4
TYPE F F F F
COUNT 1 1 1 1
WIDTH 1106
HEIGHT 1
VIEWPOINT 0 0 0 1 0 0 0
POINTS 1106
DATA ascii
-0.065324314 0.092013448 1.1860001 0.10555288
-0.10240232 0.095250107 1.1888334 0.10555288
-0.094484232 0.094109744 1.184 0.10555288
-0.086619519 0.094129615 1.18425 0.10555288
-0.077924803 0.095640495 1.1890001 0.10555288
-0.070050083 0.095694125 1.1896667 0.10555288
-0.062620059 0.095859177 1.1897143 0.10555288
-0.10209235 0.097175062 1.194 0.10555288
-0.094288535 0.096930891 1.1910001 0.10555288
-0.094317041 0.099267274 1.2010001 0.10555288
-0.086030029 0.096985154 1.1916667 0.10555288
-0.10161169 0.10009101 1.20175 0.10555288
-0.091196015 0.099945255 1.2 0.10555288
-0.088914149 0.099945255 1.2 0.10555288
-0.084420703 0.10002854 1.2010001 0.10555288
-0.062158737 0.17833377 1.1901668 0.10436746
-0.054578852 0.17774817 1.1905715 0.10436746
-0.052810319 0.17958914 1.1835001 0.10436746
-0.070443742 0.1829028 1.1867501 0.10436746
-0.062474158 0.18233182 1.1818334 0.10436746
-0.055971008 0.18114825 1.179 0.10436746
-0.052431524 0.18053365 1.1750001 0.10436746
-0.069579981 0.18567516 1.1816667 0.10436746
-0.059737016 0.18121253 1.1650001 0.10436746
-0.057373576 0.18074588 1.1620001 0.10436746
-0.055591222 0.1821458 1.171 0.10436746
-0.053825706 0.18194906 1.1650001 0.10436746
-0.064443044 0.1842151 1.1700001 0.10436746
-0.062102336 0.18452142 1.1560001 0.10436746
-0.052790422 0.18237819 1.1583334 0.10436746
-0.069245994 0.18739603 1.176 0.10436746
-0.066382967 0.18564317 1.1650001 0.10436746
-0.053459112 0.18528955 1.1490834 0.10436746
-0.072786495 0.1934818 1.1790001 0.10436746
-0.070123821 0.19232737 1.1720001 0.10436746
-0.06102908 0.18696332 1.1476252 0.10436746
-0.069534183 0.19197774 1.1658001 0.10436746
-0.063015968 0.19319722 1.1484445 0.10436746
-0.053225491 0.19268361 1.1488668 0.10436746
-0.065756172 0.19376515 1.154 0.10436746
-0.058660213 0.19317378 1.1440001 0.10436746
-0.073200352 0.2006923 1.1796668 0.10436746
-0.070678249 0.20101701 1.1750001 0.10436746
-0.061922848 0.20086147 1.1506667 0.10436746
-0.064348318 0.20235352 1.1550001 0.10436746
-0.062952682 0.21186274 1.1630001 0.10436746
-0.12569979 0.26456618 1.0382999 0.2294966
-0.1109553 0.2625958 1.0352 0.2294966
-0.11067805 0.26485574 1.0285001 0.2294966
-0.13323186 0.26537156 1.0265714 0.2294966
-0.12642732 0.26471096 1.0266001 0.2294966
-0.11850983 0.26689306 1.029 0.2294966
-0.10839599 0.26612541 1.0205556 0.2294966
-0.13783301 0.26949817 1.036 0.2294966
-0.13286051 0.26740569 1.0205001 0.2294966
-0.12556128 0.26563901 1.018375 0.2294966
-0.11843387 0.26769337 1.0216 0.2294966
-0.12651752 0.26709035 1.0130001 0.2294966
-0.11515371 0.2691099 1.0270001 0.2294966
-0.14105161 0.27401954 1.0283333 0.2294966
-0.13684148 0.27304012 1.0197999 0.2294966
-0.13130818 0.26815951 1.016 0.2294966
-0.11940017 0.26745567 1.0133334 0.2294966
-0.11436883 0.26921523 1.0200001 0.2294966
-0.11151455 0.26934719 1.0205001 0.2294966
-0.13804874 0.27195236 1.023 0.2294966
-0.13353318 0.27280518 1.0133333 0.2294966
-0.12465984 0.2681964 1.0060002 0.2294966
-0.11933259 0.26803133 1.0046667 0.2294966
-0.11551023 0.26929396 1.013 0.2294966
-0.1108259 0.27211076 1.01275 0.2294966
-0.130658 0.27333021 1.0080001 0.2294966
-0.12580585 0.27366686 1.0038751 0.2294966
-0.11773244 0.27290082 1.0046111 0.2294966
-0.10966534 0.27383432 1.0084444 0.2294966
-0.1416571 0.28110006 1.0280001 0.2294966
-0.11985227 0.27181432 1.001 0.2294966
-0.13702551 0.28154534 1.0190001 0.2294966
-0.13367006 0.28173462 1.0134001 0.2294966
-0.12042709 0.25881553 1.0650001 0.12266043
-0.11586717 0.25994959 1.0696667 0.12266043
-0.11225455 0.26100269 1.074 0.12266043
-0.13144194 0.2605958 1.064 0.12266043
-0.12712049 0.26002428 1.0616667 0.12266043
-0.12242147 0.25964043 1.056 0.12266043
-0.11764132 0.25943539 1.0551667 0.12266043
-0.11975089 0.26157546 1.0680001 0.12266043
-0.1117991 0.25961611 1.0600001 0.12266043
-0.1454165 0.27081612 1.0930001 0.12266043
-0.14202668 0.26730868 1.0830001 0.12266043
-0.13170022 0.26414248 1.062 0.12266043
-0.12744279 0.26268482 1.0610001 0.12266043
-0.11471425 0.26138493 1.059 0.12266043
-0.1117991 0.26163176 1.0600001 0.12266043
-0.14641534 0.26986551 1.085 0.12266043
-0.14202668 0.26936805 1.0830001 0.12266043
-0.13641882 0.26649114 1.0660001 0.12266043
-0.12624055 0.26357543 1.0543333 0.12266043
-0.11721405 0.26149181 1.0513334 0.12266043
-0.11861786 0.26091143 1.049 0.12266043
-0.11110418 0.25966781 1.044 0.12266043
-0.10755813 0.25928724 1.0385001 0.12266043
-0.14628899 0.26791871 1.069 0.12266043
-0.1429728 0.26741743 1.0670002 0.12266043
-0.14245282 0.26717201 1.0606667 0.12266043
-0.13591522 0.26557311 1.0516667 0.12266043
-0.12395412 0.26356325 1.0463334 0.12266043
-0.11855948 0.26184922 1.0432001 0.12266043
-0.11209679 0.26165307 1.044 0.12266043
-0.15181495 0.27370024 1.0757501 0.12266043
-0.14748928 0.26843634 1.0630001 0.12266043
-0.14183258 0.26800731 1.056 0.12266043
-0.1347644 0.26568446 1.0458 0.12266043
-0.1304547 0.26361701 1.0400001 0.12266043
-0.11706088 0.26465735 1.0372308 0.12266043
-0.1493725 0.27289712 1.0620002 0.12266043
-0.14277183 0.26918554 1.0580001 0.12266043
-0.1472075 0.27311486 1.05375 0.12266043
-0.1452937 0.27298716 1.052 0.12266043
-0.14015988 0.26812142 1.046 0.12266043
-0.14165775 0.27113077 1.0448333 0.12266043
-0.15195963 0.27730218 1.0660001 0.12266043
-0.15103306 0.28064522 1.0595 0.12266043
-0.14213799 0.27414206 1.0386667 0.12266043
-0.14824477 0.27818906 1.054 0.12266043
-0.14627568 0.27647161 1.0400001 0.12266043
-0.1462757 0.28141665 1.04 0.12266043
-0.10122669 0.21607095 1.0946668 0.2149142
-0.096402407 0.21544045 1.095 0.2149142
-0.094158947 0.21788761 1.1012501 0.2149142
-0.10344484 0.21811685 1.09975 0.2149142
-0.10702517 0.22427571 1.1043334 0.2149142
-0.10138983 0.22446816 1.100125 0.2149142
-0.095175363 0.22462122 1.100875 0.2149142
-0.092806019 0.23291866 1.1080002 0.2149142
-0.10350622 0.23355186 1.1060001 0.2149142
-0.10157168 0.23331895 1.1044 0.2149142
-0.093928821 0.23457341 1.1034 0.2149142
-0.11734822 0.23651735 1.1026667 0.2149142
-0.11004209 0.23658885 1.103 0.2149142
-0.10140279 0.24121173 1.1028333 0.2149142
-0.095014974 0.24136132 1.1003335 0.2149142
-0.087009415 0.23669609 1.1035001 0.2149142
-0.085627265 0.24076365 1.0992309 0.2149142
-0.11807556 0.24110739 1.0996876 0.2149142
-0.10986702 0.24144994 1.1012499 0.2149142
-0.0921712 0.23878868 1.0962501 0.2149142
-0.089104891 0.23999542 1.097 0.2149142
-0.077943295 0.2401087 1.0956666 0.2149142
-0.076946311 0.23688297 1.0946667 0.2149142
-0.11791029 0.24918976 1.104 0.2149142
-0.11008389 0.24926721 1.1034166 0.2149142
-0.10166033 0.24919237 1.1030833 0.2149142
-0.093346976 0.24939996 1.1040001 0.2149142
-0.08668676 0.24866349 1.1038333 0.2149142
-0.084089853 0.25154239 1.1065 0.2149142
-0.11011699 0.25563958 1.1037501 0.2149142
-0.10145307 0.25589558 1.1034616 0.2149142
-0.093655348 0.2563169 1.1018668 0.2149142
-0.084102355 0.25421056 1.1066667 0.2149142
-0.10307356 0.26060221 1.107 0.2149142
-0.10277022 0.26352787 1.1075 0.2149142
-0.09932176 0.25447714 1.0350001 0.51434112
-0.094219051 0.25300324 1.033 0.51434112
-0.090377845 0.25423127 1.034 0.51434112
-0.086638592 0.25480494 1.0363334 0.51434112
-0.094464302 0.25523728 1.0295714 0.51434112
-0.10327636 0.25771827 1.0302501 0.51434112
-0.10148152 0.25768524 1.0204444 0.51434112
-0.086296521 0.25642148 1.0283333 0.51434112
-0.078972235 0.25806299 1.0289001 0.51434112
-0.093910977 0.25635439 1.0190001 0.51434112
-0.086876415 0.25688744 1.0198334 0.51434112
-0.079827026 0.25946483 1.0198001 0.51434112
-0.099308826 0.25914606 1.0147501 0.51434112
-0.093607478 0.25882065 1.0122223 0.51434112
-0.08528287 0.25887698 1.0124445 0.51434112
-0.074769057 0.26251665 1.0266666 0.51434112
-0.070789531 0.26651573 1.031 0.51434112
-0.10456826 0.26216745 1.0190001 0.51434112
-0.080996796 0.26017517 1.0150001 0.51434112
-0.076582916 0.26255339 1.0205001 0.51434112
-0.073781818 0.26633739 1.0220001 0.51434112
-0.10209918 0.26435664 1.0118001 0.51434112
-0.097979881 0.26107237 1.011 0.51434112
-0.092943773 0.26042676 1.0085001 0.51434112
-0.087102249 0.26016852 1.0075002 0.51434112
-0.07729774 0.26479575 1.0125455 0.51434112
-0.094782121 0.26371682 1.0053078 0.51434112
-0.086154237 0.26305711 1.0044286 0.51434112
-0.079948984 0.26545778 1.0048751 0.51434112
-0.10619239 0.26815951 1.016 0.51434112
-0.10034894 0.26738533 1.0058335 0.51434112
-0.10587882 0.27025712 1.013 0.51434112
-0.09326756 0.26709515 0.99760008 0.51434112
-0.086721376 0.26700991 0.99870002 0.51434112
-0.081783056 0.26705563 1.001 0.51434112
-0.10300361 0.27308825 1.0051538 0.51434112
-0.094136797 0.27309918 0.99700022 0.51434112
-0.086070955 0.27255166 0.99871439 0.51434112
-0.081094101 0.27036497 1.0003333 0.51434112
-0.099365361 0.2741248 1.0007501 0.51434112
-0.086882636 0.26003671 1.0940001 0.28372073
-0.078871466 0.26030156 1.0925001 0.28372073
-0.093627401 0.26194167 1.095 0.28372073
-0.084103063 0.26036245 1.0862501 0.28372073
-0.074682362 0.26122403 1.092 0.28372073
-0.068862081 0.26283282 1.0918001 0.28372073
-0.085393488 0.26113048 1.0830001 0.28372073
-0.080821581 0.26070493 1.077 0.28372073
-0.077048592 0.26076883 1.0815001 0.28372073
-0.074135236 0.26137158 1.0840001 0.28372073
-0.070424914 0.26260611 1.0840001 0.28372073
-0.090463735 0.25711441 1.0580001 0.28372073
-0.085491516 0.25627792 1.0525 0.28372073
-0.083896399 0.26173177 1.077 0.28372073
-0.077726498 0.26165077 1.0766667 0.28372073
-0.073861681 0.26246083 1.08 0.28372073
-0.078151405 0.26169795 1.0685 0.28372073
-0.070241183 0.26249394 1.07175 0.28372073
-0.064917535 0.26157546 1.0680001 0.28372073
-0.074720398 0.26237223 1.0630001 0.28372073
-0.070141569 0.26228094 1.0610001 0.28372073
-0.074298643 0.26290125 1.057 0.28372073
-0.10612871 0.19817284 1.1170001 0.13101321
-0.10271272 0.19666964 1.1145 0.13101321
-0.10123464 0.19848089 1.1157501 0.13101321
-0.10684749 0.20188451 1.1025001 0.13101321
-0.10234456 0.20018718 1.1105001 0.13101321
-0.11125509 0.20283231 1.1088001 0.13101321
-0.10149278 0.20061378 1.1012499 0.13101321
-0.11724044 0.21052063 1.1320001 0.13101321
-0.10187959 0.20244355 1.0941666 0.13101321
-0.1147275 0.20897999 1.118 0.13101321
-0.11161149 0.20889723 1.1081667 0.13101321
-0.10889456 0.20808381 1.102 0.13101321
-0.10231563 0.20435978 1.08775 0.13101321
-0.12443209 0.21756181 1.1328 0.13101321
-0.12046929 0.21590111 1.132 0.13101321
-0.11883765 0.21782792 1.1252859 0.13101321
-0.10197153 0.20779413 1.0840834 0.13101321
-0.096988052 0.20816122 1.0860001 0.13101321
-0.11477881 0.21757868 1.1185 0.13101321
-0.10795581 0.21044728 1.0925001 0.13101321
-0.12320687 0.21933231 1.1275001 0.13101321
-0.11075819 0.21807086 1.1101668 0.13101321
-0.12833217 0.22320142 1.133 0.13101321
-0.10686365 0.21764874 1.1026667 0.13101321
-0.10036217 0.21287785 1.0890001 0.13101321
-0.12629317 0.22553058 1.1263334 0.13101321
-0.120526 0.22156096 1.1225001 0.13101321
-0.11777496 0.2255162 1.1172353 0.13101321
-0.13218401 0.22742416 1.1340001 0.13101321
-0.11093492 0.22491013 1.1104287 0.13101321
-0.12381929 0.22714926 1.1185 0.13101321
-0.13497435 0.2321334 1.1324285 0.13101321
-0.13281675 0.23355615 1.1271667 0.13101321
-0.12793927 0.22999647 1.1220001 0.13101321
-0.12714852 0.23276621 1.117375 0.13101321
-0.12327539 0.23393685 1.1120001 0.13101321
-0.11797064 0.2330202 1.1101667 0.13101321
-0.11537619 0.23047493 1.1140001 0.13101321
-0.11011808 0.23275135 1.1082858 0.13101321
-0.1338018 0.24125461 1.1264167 0.13101321
-0.12774983 0.23992738 1.1166 0.13101321
-0.12406162 0.24066725 1.1102 0.13101321
-0.12877984 0.20124133 1.1785001 0.10646221
-0.12545548 0.20091248 1.1728573 0.10646221
-0.11819134 0.19926941 1.1734999 0.10646221
-0.12271335 0.20149386 1.1670002 0.10646221
-0.11804258 0.20253968 1.1657143 0.10646221
-0.11015153 0.20164131 1.1593333 0.10646221
-0.13152415 0.2058747 1.1730001 0.10646221
-0.12951407 0.2051114 1.1750001 0.10646221
-0.10735665 0.20127101 1.153 0.10646221
-0.13447344 0.20853725 1.1643847 0.10646221
-0.12666313 0.20650177 1.1652 0.10646221
-0.12155684 0.20522816 1.1630001 0.10646221
-0.11652175 0.20360297 1.1496667 0.10646221
-0.11161602 0.20234208 1.1405001 0.10646221
-0.12652707 0.20999375 1.1567779 0.10646221
-0.1208252 0.20728928 1.1560001 0.10646221
-0.11876021 0.2079608 1.1488 0.10646221
-0.11264955 0.20550504 1.1400001 0.10646221
-0.13238634 0.21149839 1.161 0.10646221
-0.12347827 0.21058793 1.1500001 0.10646221
-0.1427788 0.21783198 1.1580001 0.10646221
-0.14197969 0.21637914 1.165 0.10646221
-0.13610747 0.21435036 1.1645 0.10646221
-0.13380112 0.21576926 1.1568573 0.10646221
-0.12026125 0.21196516 1.1436667 0.10646221
-0.14931522 0.21666406 1.1486 0.10646221
-0.12950589 0.214798 1.1550001 0.10646221
-0.12701793 0.21531507 1.1484001 0.10646221
-0.12594952 0.2168494 1.1426667 0.10646221
-0.12132065 0.21417619 1.1400001 0.10646221
-0.13386245 0.21935415 1.1492859 0.10646221
-0.14462912 0.22100358 1.153 0.10646221
-0.14158553 0.22138692 1.1550001 0.10646221
-0.14235304 0.22302358 1.1472857 0.10646221
-0.13423063 0.22243774 1.1453334 0.10646221
-0.13501482 0.22605452 1.1405715 0.10646221
-0.13418347 0.24866164 1.1257857 0.1075811
-0.12526661 0.24930985 1.110889 0.1075811
-0.1298023 0.25080875 1.1196667 0.1075811
-0.13442971 0.25416842 1.12275 0.1075811
-0.12190857 0.24985114 1.1060001 0.1075811
-0.13423543 0.25844395 1.1181668 0.1075811
-0.12937725 0.25635257 1.1160001 0.1075811
-0.12604539 0.25682241 1.11 0.1075811
-0.11855782 0.2557359 1.1041666 0.1075811
-0.13453172 0.26348606 1.11475 0.1075811
-0.12914538 0.26330927 1.1140001 0.1075811
-0.12574832 0.26328662 1.1107143 0.1075811
-0.11773843 0.26044527 1.1063334 0.1075811
-0.11041549 0.26054338 1.10675 0.1075811
-0.12085701 0.26246992 1.1060001 0.1075811
-0.11774972 0.26319489 1.1031667 0.1075811
-0.11265884 0.26355371 1.1046667 0.1075811
-0.10892773 0.26345393 1.1066 0.1075811
-0.096277744 0.26244786 1.1015 0.1075811
-0.091419786 0.26054078 1.0935001 0.1075811
-0.13391264 0.26649296 1.109625 0.1075811
-0.12693357 0.26619205 1.1040001 0.1075811
-0.099690855 0.26421425 1.1045001 0.1075811
-0.14060712 0.26824346 1.1125001 0.1075811
-0.11543831 0.26390332 1.0945001 0.1075811
-0.11226465 0.26378277 1.0940001 0.1075811
-0.15090705 0.27039871 1.1105 0.1075811
-0.14070936 0.2685363 1.105 0.1075811
-0.13502488 0.26768574 1.1015 0.1075811
-0.11164894 0.26440498 1.0880001 0.1075811
-0.14898056 0.27039263 1.1040001 0.1075811
-0.1424634 0.27068228 1.1023334 0.1075811
-0.14306906 0.27112737 1.107 0.1075811
-0.1378555 0.26916802 1.0990001 0.1075811
-0.14275064 0.22662617 1.1411818 0.10501736
-0.14148918 0.23126143 1.1375556 0.10501736
-0.14997509 0.23381606 1.1353749 0.10501736
-0.14171848 0.23537634 1.1347144 0.10501736
-0.15844505 0.24127005 1.1320001 0.10501736
-0.14972705 0.24097651 1.1335 0.10501736
-0.14176789 0.24106419 1.1319001 0.10501736
-0.13750735 0.23926243 1.1305001 0.10501736
-0.16518532 0.24316736 1.1286668 0.10501736
-0.15685132 0.24854128 1.1336 0.10501736
-0.15005729 0.24582739 1.136 0.10501736
-0.1494571 0.24915087 1.1396667 0.10501736
-0.14318286 0.24838072 1.1328751 0.10501736
-0.17419088 0.24956761 1.1264286 0.10501736
-0.16586608 0.24901432 1.1260002 0.10501736
-0.15876156 0.25054771 1.126875 0.10501736
-0.15137821 0.25126112 1.1460001 0.10501736
-0.14029559 0.25030711 1.127 0.10501736
-0.15424216 0.25168914 1.143 0.10501736
-0.15202178 0.25378859 1.1426667 0.10501736
-0.1494966 0.25351611 1.13175 0.10501736
-0.16527638 0.25346562 1.1220001 0.10501736
-0.15785521 0.2535409 1.1223334 0.10501736
-0.14994133 0.25429934 1.1238 0.10501736
-0.14262494 0.25436535 1.1228335 0.10501736
-0.16613421 0.25820819 1.1183848 0.10501736
-0.1583363 0.25791687 1.1181875 0.10501736
-0.14999941 0.25805491 1.1178666 0.10501736
-0.14141111 0.25796235 1.1196364 0.10501736
-0.14209914 0.26446691 1.1159166 0.10501736
-0.15889776 0.26240703 1.1146667 0.10501736
-0.15728007 0.26579243 1.1124616 0.10501736
-0.15158196 0.26444432 1.1128334 0.10501736
-0.14809245 0.26575691 1.1148889 0.10501736
-0.14635435 0.27014846 1.1160001 0.10501736
-0.14410298 0.27096647 1.115 0.10501736
-0.096656978 0.19835022 1.118 0.18919414
-0.093782626 0.20238535 1.1346668 0.18919414
-0.091051564 0.20243078 1.141 0.18919414
-0.089271381 0.20331785 1.146 0.18919414
-0.085758932 0.20785111 1.15 0.18919414
-0.094319858 0.2014205 1.108 0.18919414
-0.090812169 0.20514452 1.138 0.18919414
-0.085560329 0.20961216 1.142143 0.18919414
-0.094724931 0.20241392 1.0996667 0.18919414
-0.096573681 0.20326422 1.0930001 0.18919414
-0.08733537 0.20999846 1.135 0.18919414
-0.092005007 0.20884262 1.1005 0.18919414
-0.080343761 0.21256632 1.143 0.18919414
-0.093844876 0.20843554 1.0915 0.18919414
-0.090552337 0.21033508 1.1083335 0.18919414
-0.088190854 0.20999759 1.1140001 0.18919414
-0.084345274 0.21438849 1.1335 0.18919414
-0.079640836 0.21286108 1.133 0.18919414
-0.077161141 0.2157619 1.1388334 0.18919414
-0.085484229 0.21667206 1.1248335 0.18919414
-0.07916943 0.21843895 1.1340001 0.18919414
-0.087454997 0.21805076 1.1166667 0.18919414
-0.091481119 0.21812865 1.1094 0.18919414
-0.081326045 0.21913588 1.1265 0.18919414
-0.07401707 0.22184102 1.146 0.18919414
-0.076357841 0.22456171 1.1322501 0.18919414
-0.075797319 0.22392933 1.1400001 0.18919414
-0.07308618 0.22609663 1.1400001 0.18919414
-0.085812517 0.22561333 1.1177061 0.18919414
-0.078332275 0.22505525 1.1245557 0.18919414
-0.091496468 0.22459018 1.1088572 0.18919414
-0.073306613 0.2261865 1.1350001 0.18919414
-0.080170304 0.2268139 1.1203334 0.18919414
-0.069943205 0.2326117 1.133 0.18919414
-0.078286074 0.23087981 1.1171112 0.18919414
-0.074667014 0.23020148 1.123 0.18919414
-0.071117081 0.23295808 1.126 0.18919414
-0.085989393 0.23347859 1.1106669 0.18919414
-0.08471033 0.23061286 1.1146667 0.18919414
-0.10158059 0.18253104 1.1880001 0.10429177
-0.093553409 0.18230058 1.1865001 0.10429177
-0.085059442 0.18433245 1.1871427 0.10429177
-0.077835515 0.18360153 1.1876251 0.10429177
-0.11030515 0.18652374 1.1846668 0.10429177
-0.10238519 0.18645827 1.18425 0.10429177
-0.094376974 0.18620878 1.1826667 0.10429177
-0.087718882 0.18696162 1.1838751 0.10429177
-0.077614203 0.18758424 1.1842501 0.10429177
-0.11773153 0.19253282 1.1800834 0.10429177
-0.11010002 0.19337827 1.1802729 0.10429177
-0.10203487 0.19210272 1.1802001 0.10429177
-0.094119854 0.1924288 1.1794447 0.10429177
-0.086075678 0.19339436 1.1798668 0.10429177
-0.077655338 0.19365734 1.1814667 0.10429177
-0.10167138 0.19559495 1.1760001 0.10429177
-0.11742479 0.19650795 1.177 0.10429177
-0.10735317 0.19650795 1.177 0.10429177
-0.093924366 0.19650795 1.177 0.10429177
-0.089448094 0.19650795 1.177 0.10429177
-0.1111242 0.19889732 1.1735001 0.10429177
-0.10136878 0.19798623 1.1725001 0.10429177
-0.093159437 0.19896097 1.1730001 0.10429177
-0.085752226 0.20192915 1.1749166 0.10429177
-0.08395914 0.19899938 1.1785001 0.10429177
-0.078323901 0.19891495 1.1780001 0.10429177
-0.10967047 0.20021164 1.166 0.10429177
-0.10209024 0.19944739 1.1680001 0.10429177
-0.093462273 0.20080754 1.1656001 0.10429177
-0.078057528 0.20270208 1.1740001 0.10429177
-0.10236042 0.20002815 1.1585 0.10429177
-0.095130756 0.20143569 1.159 0.10429177
-0.088802114 0.20286527 1.1685001 0.10429177
-0.1017861 0.20109646 1.152 0.10429177
-0.071329944 0.20596355 1.1734999 0.10429177
-0.088232137 0.20487525 1.161 0.10429177
-0.085358486 0.20593402 1.1670001 0.10429177
-0.082241639 0.20646343 1.1700001 0.10429177
-0.077791996 0.20646341 1.1700001 0.10429177
-0.069455139 0.20968276 1.165077 0.10429177
-0.084663622 0.20755778 1.1575001 0.10429177
-0.078135535 0.2096034 1.1652 0.10429177
-0.080105603 0.21095049 1.1500001 0.10429177
-0.078097031 0.21205099 1.158 0.10429177
-0.075458996 0.21443403 1.1570001 0.10429177
-0.069510862 0.21665478 1.1631538 0.10429177
-0.075400166 0.21724416 1.1505001 0.10429177
-0.069438115 0.22023438 1.1605 0.10429177
-0.070056163 0.22250135 1.1646668 0.10429177
-0.069751099 0.22413333 1.1578572 0.10429177
-0.069800526 0.22702189 1.1483334 0.10429177
-0.077469088 0.23401663 1.1107143 0.11400539
-0.071159899 0.23454264 1.11825 0.11400539
-0.073054127 0.23513365 1.1093334 0.11400539
-0.067936689 0.24055845 1.1265001 0.11400539
-0.078546911 0.23578183 1.1025001 0.11400539
-0.068683751 0.24130081 1.1183333 0.11400539
-0.073137775 0.23594536 1.1 0.11400539
-0.069901906 0.24027543 1.1084 0.11400539
-0.072805323 0.23695509 1.095 0.11400539
-0.072038889 0.24190891 1.1024001 0.11400539
-0.072871812 0.23925561 1.0960001 0.11400539
-0.066331297 0.24912357 1.1265 0.11400539
-0.079376824 0.24367827 1.0995001 0.11400539
-0.068417259 0.25014371 1.1186001 0.11400539
-0.071643628 0.24908683 1.1092857 0.11400539
-0.077869616 0.24773906 1.1028334 0.11400539
-0.073337235 0.24707599 1.103 0.11400539
-0.079047002 0.2512497 1.1066 0.11400539
-0.066125207 0.25369152 1.123 0.11400539
-0.061865911 0.25587654 1.1232224 0.11400539
-0.071887806 0.25745827 1.1098 0.11400539
-0.067938924 0.25675434 1.11775 0.11400539
-0.086682476 0.25705341 1.1015834 0.11400539
-0.078414403 0.25548914 1.107 0.11400539
-0.062635235 0.25997269 1.1178751 0.11400539
-0.078152686 0.25869814 1.1018889 0.11400539
-0.073270753 0.25941944 1.102 0.11400539
-0.068193667 0.26208988 1.1103334 0.11400539
-0.064536095 0.2622501 1.1140001 0.11400539
-0.061344102 0.26351997 1.1094445 0.11400539
-0.069113433 0.26268518 1.1025 0.11400539
-0.055597 0.26322392 1.10475 0.11400539
-0.064770915 0.26418364 1.1 0.11400539
-0.053431503 0.080771133 1.1724285 0.10545262
-0.045606866 0.07978145 1.1719167 0.10545262
-0.029424051 0.080688305 1.1726154 0.10545262
-0.022228075 0.080972373 1.173 0.10545262
-0.015029331 0.081614859 1.1736153 0.10545262
-0.038373951 0.081474029 1.17225 0.10545262
-0.053683501 0.084672652 1.1780001 0.10545262
-0.045863777 0.084708594 1.1785001 0.10545262
-0.03800324 0.084672652 1.1780001 0.10545262
-0.032403149 0.084672652 1.1780001 0.10545262
-0.054154869 0.088762477 1.1812859 0.10545262
-0.045525964 0.088964142 1.1814001 0.10545262
-0.038120184 0.089149691 1.1816251 0.10545262
-0.030546166 0.089587055 1.1810001 0.10545262
-0.026780305 0.086838916 1.177 0.10545262
-0.022298351 0.086814322 1.1766667 0.10545262
-0.016708696 0.086838916 1.177 0.10545262
-0.014076643 0.0898702 1.1815002 0.10545262
-0.0059148143 0.090190612 1.1817777 0.10545262
-0.022398785 0.090581201 1.182 0.10545262
-0.052942283 0.092052244 1.1865001 0.10545262
-0.048409954 0.092013448 1.1860001 0.10545262
-0.038261328 0.092013448 1.1860001 0.10545262
-0.058509197 0.094189219 1.1850001 0.10545262
-0.054206938 0.095680557 1.1895 0.10545262
-0.045502927 0.09523686 1.1886667 0.10545262
-0.038892992 0.094994821 1.1880001 0.10545262
-0.030336183 0.094169348 1.1847501 0.10545262
-0.022455633 0.094189219 1.1850001 0.10545262
-0.015686126 0.094136238 1.1843333 0.10545262
-0.012931362 0.096265346 1.1897501 0.10545262
-0.0063329129 0.096124887 1.1903334 0.10545262
-0.04873649 0.097175062 1.194 0.10545262
-0.037384182 0.097175062 1.194 0.10545262
-0.03052254 0.097012281 1.192 0.10545262
-0.021456854 0.097012281 1.192 0.10545262
-0.055827014 0.099945255 1.2 0.10545262
-0.051326875 0.10007018 1.2015001 0.10545262
-0.045672487 0.10019512 1.2030001 0.10545262
-0.037680678 0.10023676 1.2035 0.10545262
-0.029643655 0.1001396 1.2023335 0.10545262
-0.021631157 0.100091 1.20175 0.10545262
-0.013612397 0.099945255 1.2 0.10545262
-0.046990924 0.10286605 1.2075 0.10545262
-0.045928314 0.17797214 1.18025 0.10438683
-0.038186055 0.17811346 1.1836667 0.10438683
-0.045235902 0.17858569 1.1720001 0.10438683
-0.037936822 0.17919712 1.176 0.10438683
-0.044763219 0.17947277 1.1645 0.10438683
-0.038708113 0.18017977 1.1655002 0.10438683
-0.029891763 0.18437231 1.1821111 0.10438683
-0.028112706 0.18222375 1.1860001 0.10438683
-0.020622037 0.18323253 1.1876668 0.10438683
-0.048618667 0.18105698 1.164 0.10438683
-0.044039972 0.18043478 1.1600001 0.10438683
-0.041870229 0.18059035 1.161 0.10438683
-0.035581049 0.18341377 1.1720001 0.10438683
-0.022703426 0.18658128 1.18325 0.10438683
-0.046020504 0.18174839 1.1543334 0.10438683
-0.038183026 0.18339349 1.1564 0.10438683
-0.031174056 0.18596302 1.174 0.10438683
-0.045759156 0.1850799 1.1477779 0.10438683
-0.038800593 0.18608508 1.1486001 0.10438683
-0.035277456 0.18516512 1.1620001 0.10438683
-0.033153221 0.18674892 1.1650001 0.10438683
-0.014561819 0.18875051 1.1845 0.10438683
-0.028184531 0.19180362 1.1733335 0.10438683
-0.02682581 0.19011603 1.179 0.10438683
-0.021514945 0.19275846 1.1797502 0.10438683
-0.014522575 0.19384487 1.18125 0.10438683
-0.032897096 0.18860544 1.156 0.10438683
-0.028735863 0.19347838 1.1655 0.10438683
-0.023957046 0.19462207 1.17575 0.10438683
-0.045646761 0.19297738 1.1499091 0.10438683
-0.038833078 0.190685 1.1458571 0.10438683
-0.031817488 0.19310918 1.1488001 0.10438683
-0.029373903 0.1925315 1.1558001 0.10438683
-0.037939783 0.19442217 1.1424 0.10438683
-0.04820098 0.19486235 1.154 0.10438683
0.017304443 0.077912688 1.169 0.10551046
0.026100399 0.078262106 1.1682857 0.10551046
0.018201301 0.082373857 1.173125 0.10551046
0.025384352 0.082915574 1.1742224 0.10551046
0.03436143 0.081501931 1.1726251 0.10551046
-0.005505594 0.083297297 1.1743751 0.10551046
0.0023085901 0.083258517 1.1738335 0.10551046
0.010122337 0.083261833 1.173875 0.10551046
0.041858461 0.08344055 1.174143 0.10551046
0.03255792 0.084672652 1.1780001 0.10551046
-0.0043977066 0.086814322 1.1766667 0.10551046
0.0023134863 0.086765133 1.176 0.10551046
0.010147484 0.086820468 1.1767501 0.10551046
0.017982399 0.086838923 1.177 0.10551046
0.022458671 0.086838916 1.177 0.10551046
0.026213318 0.08960133 1.1811819 0.10551046
0.033763941 0.089663595 1.181 0.10551046
0.033649348 0.086838916 1.177 0.10551046
0.041473292 0.086820476 1.1767501 0.10551046
0.0023236612 0.090530425 1.1813334 0.10551046
0.010196106 0.090609811 1.1823751 0.10551046
0.018061019 0.090593815 1.1821667 0.10551046
0.041675474 0.090619273 1.1825001 0.10551046
-0.0033021776 0.094189219 1.1850001 0.10551046
0.0023311917 0.094189219 1.1850001 0.10551046
0.010217909 0.094189219 1.1850001 0.10551046
0.018104626 0.094189219 1.1850001 0.10551046
0.025985146 0.094169348 1.1847501 0.10551046
0.033840574 0.09408325 1.1836667 0.10551046
0.042127639 0.094162725 1.1846668 0.10551046
0.041737191 0.096447289 1.1906 0.10551046
0.0023449624 0.097012281 1.192 0.10551046
0.01027635 0.096991934 1.19175 0.10551046
0.018211573 0.097012281 1.192 0.10551046
0.026115322 0.096910551 1.1907501 0.10551046
0.034021001 0.096849509 1.1900001 0.10551046
0.043213289 0.16350035 1.1343335 0.43372649
0.049615096 0.16326012 1.1326667 0.43372649
0.036959499 0.16879873 1.1410002 0.43372649
0.039026294 0.16727483 1.138 0.43372649
0.040991195 0.16700596 1.1325001 0.43372649
0.044958241 0.16414829 1.1240001 0.43372649
0.041787218 0.16910788 1.1250001 0.43372649
0.034558762 0.17146426 1.1335001 0.43372649
0.042620406 0.17082669 1.1187501 0.43372649
0.032385066 0.17617999 1.1326667 0.43372649
0.036473613 0.17300501 1.126 0.43372649
0.043733418 0.17210811 1.1110001 0.43372649
0.033247907 0.17720544 1.1255001 0.43372649
0.035676796 0.17704472 1.11775 0.43372649
0.038374715 0.17512128 1.1190001 0.43372649
0.040714361 0.17671591 1.1090001 0.43372649
0.028032921 0.18022525 1.131 0.43372649
0.043613445 0.17846492 1.1035001 0.43372649
0.028032921 0.18345127 1.131 0.43372649
0.030201375 0.18463475 1.1316668 0.43372649
0.031662684 0.18482268 1.12625 0.43372649
0.037008803 0.1800431 1.1100001 0.43372649
0.034450393 0.18413177 1.1092 0.43372649
0.027921386 0.1870051 1.1265001 0.43372649
0.04099923 0.18360186 1.0997143 0.43372649
0.045922395 0.18090034 1.0960001 0.43372649
0.050251186 0.18472356 1.0919167 0.43372649
0.036979046 0.1866363 1.1028 0.43372649
0.044015709 0.18499137 1.0940001 0.43372649
0.026065333 0.19341242 1.1390001 0.43372649
0.027908992 0.19120491 1.126 0.43372649
0.030183585 0.19312929 1.131 0.43372649
0.033842705 0.19059871 1.11 0.43372649
0.037894603 0.19079077 1.105 0.43372649
0.041968156 0.19021523 1.1016666 0.43372649
0.045964293 0.18940948 1.097 0.43372649
0.048006505 0.1892368 1.0960001 0.43372649
0.049970869 0.19289291 1.1026 0.43372649
0.042006593 0.16126105 1.2043847 0.1052136
0.049711522 0.15938157 1.2046666 0.1052136
0.050797611 0.16309722 1.19875 0.1052136
0.045716252 0.16383788 1.2 0.1052136
0.010063614 0.16999196 1.1976154 0.1052136
0.025995431 0.16834976 1.1971539 0.1052136
0.033193599 0.16625819 1.2010001 0.1052136
0.034197621 0.16824083 1.1961666 0.1052136
0.04146295 0.16644767 1.1958001 0.1052136
0.045411479 0.16501229 1.192 0.1052136
0.05019493 0.16584289 1.1980001 0.1052136
0.040412102 0.16916442 1.1893334 0.1052136
0.047678135 0.16727896 1.192 0.1052136
0.034563851 0.17084973 1.18925 0.1052136
0.027301094 0.17195642 1.1930001 0.1052136
0.0091602821 0.17493866 1.194 0.1052136
0.010657798 0.17844726 1.1921668 0.1052136
0.017106898 0.17550628 1.194 0.1052136
0.01844416 0.17799091 1.1924001 0.1052136
0.02610066 0.17718828 1.1900625 0.1052136
0.03317396 0.17405184 1.1866667 0.1052136
0.033735111 0.17232649 1.1800001 0.1052136
0.032619864 0.17685165 1.18025 0.1052136
0.03588748 0.17412652 1.177 0.1052136
0.0023455853 0.1797197 1.1918334 0.1052136
-0.0066979527 0.184167 1.1876251 0.1052136
0.0023392208 0.18482362 1.1882224 0.1052136
0.010263897 0.18515241 1.1903335 0.1052136
0.018191202 0.18520364 1.1906668 0.1052136
0.024952419 0.18497916 1.1892223 0.1052136
0.027063485 0.18578167 1.1828001 0.1052136
0.031491272 0.18130188 1.1800001 0.1052136
-0.0044216057 0.18684138 1.1831251 0.1052136
0.0023291807 0.1885646 1.1833334 0.1052136
0.010209286 0.18867083 1.184 0.1052136
0.018100165 0.18877707 1.1846666 0.1052136
0.027163785 0.18914887 1.187 0.1052136
-0.0055303783 0.19242406 1.1794168 0.1052136
0.0023215031 0.19361252 1.1798335 0.1052136
0.0094611906 0.19251837 1.1800002 0.1052136
0.018318264 0.19233929 1.1806252 0.1052136
0.024234088 0.19112042 1.1817501 0.1052136
0.011715622 0.19561268 1.177 0.1052136
0.017419521 0.19590667 1.1767501 0.1052136
0.010212036 0.20209536 1.1756667 0.1052136
0.0090375319 0.19891495 1.1780001 0.1052136
-0.047807589 0.27243027 1.0346668 0.49631366
-0.068861052 0.27002007 1.0272858 0.49631366
-0.061544847 0.27051166 1.028625 0.49631366
-0.052827496 0.27230665 1.0275002 0.49631366
-0.048793044 0.27322382 1.0278 0.49631366
-0.069792949 0.27297565 1.0205334 0.49631366
-0.075830251 0.27327523 1.011889 0.49631366
-0.061905224 0.274719 1.0222354 0.49631366
-0.055391435 0.27398595 1.0233334 0.49631366
-0.079490215 0.27341223 1.005125 0.49631366
-0.048127063 0.279926 1.0345001 0.49631366
-0.072131708 0.2756691 1.0152 0.49631366
-0.048022151 0.2807911 1.03225 0.49631366
-0.061919063 0.28107506 1.0187001 0.49631366
-0.055614047 0.2815116 1.0203 0.49631366
-0.052247185 0.28172573 1.0285002 0.49631366
-0.070430614 0.28081843 1.0132941 0.49631366
-0.082028165 0.2764473 1.0040001 0.49631366
-0.051487606 0.28863439 1.0270001 0.49631366
-0.048755072 0.28863519 1.0270001 0.49631366
-0.067619197 0.28389457 1.0170001 0.49631366
-0.05386389 0.28892627 1.0211112 0.49631366
-0.055942435 0.28545374 1.0156667 0.49631366
-0.06229784 0.25912625 1.0580001 0.37786818
-0.061521366 0.25946558 1.0532501 0.37786818
-0.056288611 0.25821084 1.0510001 0.37786818
-0.05331162 0.2634829 1.0593333 0.37786818
-0.068487272 0.26300347 1.0542001 0.37786818
-0.063928835 0.26259375 1.0517501 0.37786818
-0.059773162 0.26091143 1.049 0.37786818
-0.054628793 0.26488337 1.0524445 0.37786818
-0.07585068 0.25989869 1.0370001 0.37786818
-0.070031807 0.2638157 1.0447142 0.37786818
-0.06129846 0.2641983 1.0452501 0.37786818
-0.069797203 0.26622885 1.038625 0.37786818
-0.055347033 0.26674941 1.0455 0.37786818
-0.062777877 0.26659891 1.0393 0.37786818
-0.048123747 0.26867667 1.056 0.37786818
-0.048608273 0.27032626 1.052 0.37786818
-0.054262619 0.26830286 1.039 0.37786818
-0.04951464 0.26933578 1.0430001 0.37786818
-0.061746668 0.26845762 1.0320001 0.37786818
-0.053937867 0.26865274 1.03275 0.37786818
0.042503305 0.21058637 1.0914445 0.47786921
0.049654663 0.21114837 1.0921251 0.47786921
0.042961814 0.21725321 1.0930001 0.47786921
0.044552743 0.21268238 1.0880001 0.47786921
0.050152771 0.21736562 1.0928001 0.47786921
0.039778654 0.21901229 1.0990001 0.47786921
0.040474623 0.22249532 1.0990001 0.47786921
0.043110006 0.22454724 1.0934 0.47786921
0.050555117 0.22530238 1.1003749 0.47786921
0.037534516 0.22747883 1.0945001 0.47786921
0.048553299 0.22744499 1.0926666 0.47786921
0.03288408 0.23312192 1.1015 0.47786921
0.035701871 0.23158963 1.0942501 0.47786921
0.041929491 0.22745131 1.085143 0.47786921
0.052365139 0.2296702 1.1 0.47786921
0.043433942 0.23114224 1.0858572 0.47786921
0.04759039 0.22995012 1.0865 0.47786921
0.050166659 0.23342524 1.0925555 0.47786921
0.03512739 0.24062043 1.1006666 0.47786921
0.042660989 0.23537633 1.0925001 0.47786921
0.04268124 0.24178456 1.0954547 0.47786921
0.049521267 0.24086981 1.0965716 0.47786921
0.04142765 0.2406147 1.0984 0.47786921
0.052317534 0.24200161 1.099 0.47786921
0.031655259 0.24908291 1.1072501 0.47786921
0.037551664 0.24320175 1.095 0.47786921
0.034943391 0.2496175 1.1003333 0.47786921
0.03705588 0.24701552 1.09575 0.47786921
0.042587314 0.2486009 1.0950834 0.47786921
0.048006505 0.24550796 1.0960001 0.47786921
0.049797863 0.24924546 1.1010001 0.47786921
0.046006195 0.25013182 1.098 0.47786921
0.036759682 0.25534987 1.1025001 0.47786921
0.041944183 0.25736138 1.101 0.47786921
0.041792274 0.25407603 1.097 0.47786921
0.019367769 0.27371141 1.1029999 0.10397101
0.026054407 0.27281615 1.1019334 0.10397101
0.042977363 0.27333647 1.0930001 0.10397101
0.034819264 0.27464843 1.0942001 0.10397101
0.014841344 0.2791225 1.1095001 0.10397101
0.029249523 0.27572668 1.096 0.10397101
0.01783561 0.27804977 1.0990001 0.10397101
0.023060145 0.2775273 1.0990001 0.10397101
0.026028661 0.28039736 1.0921111 0.10397101
0.01798681 0.2820664 1.0955334 0.10397101
0.033223122 0.27878493 1.0896251 0.10397101
0.041449402 0.27681839 1.0880001 0.10397101
0.045670997 0.27939808 1.0900002 0.10397101
0.048858359 0.28088206 1.09175 0.10397101
0.034857083 0.28235483 1.0867503 0.10397101
0.041969627 0.28180435 1.0861429 0.10397101
0.017077295 0.28766733 1.0907 0.10397101
0.022871299 0.28665441 1.09 0.10397101
0.026050622 0.28913084 1.085353 0.10397101
0.029009335 0.284832 1.087 0.10397101
0.049337406 0.28929681 1.0864615 0.10397101
0.034093089 0.28928041 1.0843126 0.10397101
0.042366348 0.28946412 1.085 0.10397101
0.012588127 0.29162437 1.097 0.10397101
0.018959556 0.29028916 1.0864285 0.10397101
0.0145805 0.29390889 1.09 0.10397101
0.017409397 0.29663569 1.0839413 0.10397101
0.025157547 0.29405749 1.0814002 0.10397101
0.034700047 0.29444924 1.0818334 0.10397101
0.041818202 0.29476836 1.0822858 0.10397101
0.051166292 0.29449514 1.0820001 0.10397101
0.033569161 0.29800686 1.077 0.10397101
0.042324327 0.2985124 1.0778461 0.10397101
-0.05564639 0.19639654 1.1416668 0.11510053
-0.058626026 0.1995842 1.1433333 0.11510053
-0.054077145 0.20076878 1.139111 0.11510053
-0.046609115 0.2004794 1.1394546 0.11510053
-0.044384487 0.19692025 1.1405001 0.11510053
-0.051746704 0.20145454 1.1355001 0.11510053
-0.047978267 0.20095907 1.1357501 0.11510053
-0.062012512 0.20827265 1.1578001 0.11510053
-0.058916595 0.20712745 1.149 0.11510053
-0.054178894 0.20681664 1.1412501 0.11510053
-0.046813272 0.20666249 1.1416 0.11510053
-0.054065019 0.21087737 1.148 0.11510053
-0.045330398 0.21044073 1.148 0.11510053
-0.062190793 0.21679395 1.16425 0.11510053
-0.061108872 0.21839024 1.1595 0.11510053
-0.056169938 0.21750911 1.1554 0.11510053
-0.052002985 0.21728095 1.1507001 0.11510053
-0.045860559 0.21720998 1.1503333 0.11510053
-0.038370516 0.2171243 1.1487334 0.11510053
-0.062598467 0.22222351 1.1565001 0.11510053
-0.057077326 0.2215786 1.156 0.11510053
-0.062507436 0.22515084 1.1480834 0.11510053
-0.054130763 0.22292264 1.1478333 0.11510053
-0.046619937 0.22469458 1.140077 0.11510053
-0.044734731 0.22251855 1.1495001 0.11510053
-0.039185513 0.22203462 1.147 0.11510053
-0.037609339 0.22468027 1.14 0.11510053
-0.032097764 0.22521242 1.1432 0.11510053
-0.028083276 0.22504281 1.1471819 0.11510053
-0.053918652 0.22608565 1.1422859 0.11510053
-0.059368249 0.22718848 1.1436667 0.11510053
-0.054064006 0.23236273 1.1388334 0.11510053
-0.046539091 0.23263974 1.1401875 0.11510053
-0.029982073 0.23267858 1.1416154 0.11510053
-0.022712629 0.23334131 1.1413573 0.11510053
-0.0195374 0.2305578 1.146 0.11510053
-0.046062183 0.23746507 1.1373334 0.11510053
-0.046417378 0.24099483 1.1351539 0.11510053
-0.037802383 0.23873822 1.13825 0.11510053
-0.030748602 0.23804039 1.1375 0.11510053
-0.022639155 0.23860699 1.137625 0.11510053
-0.037711769 0.24247985 1.1355001 0.11510053
-0.0055180197 0.19650795 1.177 0.10414763
-0.022030273 0.20137526 1.1733638 0.10414763
-0.01443203 0.20154142 1.1737502 0.10414763
-0.0054993657 0.20146792 1.1733127 0.10414763
0.0023123221 0.20178628 1.1751667 0.10414763
-0.032555606 0.19534917 1.1440001 0.10414763
-0.029087227 0.20095508 1.1575 0.10414763
-0.026446594 0.20069064 1.1623334 0.10414763
-0.038395964 0.19937548 1.142143 0.10414763
-0.031822417 0.20013769 1.149 0.10414763
-0.024375359 0.20184109 1.169 0.10414763
-0.037437093 0.20284057 1.1470001 0.10414763
-0.027616819 0.20892663 1.165125 0.10414763
-0.022183383 0.20658107 1.1706667 0.10414763
-0.014388287 0.20650753 1.1702501 0.10414763
-0.0048203645 0.20704956 1.1708 0.10414763
0.0023043277 0.20675753 1.1716667 0.10414763
-0.038706545 0.20879818 1.1505455 0.10414763
-0.031988613 0.20924997 1.1572858 0.10414763
-0.022133699 0.21055086 1.1680001 0.10414763
-0.014347617 0.21037024 1.1670001 0.10414763
-0.0057757776 0.2106877 1.1676364 0.10414763
0.0022988559 0.21069294 1.1687778 0.10414763
-0.035054822 0.21034402 1.1546668 0.10414763
-0.029099317 0.21535377 1.158 0.10414763
-0.026439009 0.21389018 1.1620001 0.10414763
-0.022035262 0.21514869 1.1628335 0.10414763
-0.014296077 0.21513373 1.1627501 0.10414763
-0.0047520711 0.21658906 1.1646365 0.10414763
-0.035034582 0.21461202 1.154 0.10414763
-0.029888442 0.2187345 1.1503 0.10414763
-0.021942401 0.21865767 1.1580001 0.10414763
-0.014256358 0.21894121 1.1595 0.10414763
-0.0069744783 0.21902943 1.1588 0.10414763
-0.02134137 0.22198391 1.1552501 0.10414763
-0.014213797 0.22379041 1.1560835 0.10414763
-0.0050527696 0.22379643 1.1561112 0.10414763
-0.0021332789 0.22272867 1.1620001 0.10414763
7.6333024e-05 0.22272867 1.1620001 0.10414763
-0.021986702 0.22615387 1.1498182 0.10414763
7.6135955e-05 0.2254595 1.159 0.10414763
-0.006493696 0.22667161 1.1515714 0.10414763
-0.014812417 0.22774175 1.1516 0.10414763
-0.013815642 0.23117347 1.148091 0.10414763
-0.0047570062 0.23216029 1.1477858 0.10414763
-0.014041435 0.23520672 1.1421249 0.10414763
-0.0068800584 0.23560457 1.1430001 0.10414763
-0.037896331 0.23281807 1.1410625 0.10523002
-0.013990443 0.23976715 1.138 0.10523002
-0.029861238 0.24148354 1.134625 0.10523002
-0.022588929 0.24239966 1.135125 0.10523002
-0.0074826796 0.24247988 1.1355001 0.10523002
-0.013964128 0.24361359 1.1357501 0.10523002
-0.037895873 0.24778007 1.1335385 0.10523002
-0.029878277 0.24799395 1.1324546 0.10523002
-0.02254542 0.24731229 1.1329169 0.10523002
-0.013934813 0.24740337 1.1333333 0.10523002
-0.0055614556 0.24797866 1.1336924 0.10523002
-0.036401272 0.2516773 1.1283334 0.10523002
-0.030518595 0.25236338 1.1290001 0.10523002
-0.022460762 0.25174266 1.1286252 0.10523002
-0.013879246 0.25179866 1.1288751 0.10523002
-0.0077976561 0.25218448 1.1290001 0.10523002
-0.040752247 0.25312409 1.13 0.10523002
-0.0026186225 0.25714219 1.1335001 0.10523002
-0.045258895 0.2577447 1.1254544 0.10523002
-0.037342329 0.25612929 1.1243334 0.10523002
-0.029878182 0.2563062 1.1251112 0.10523002
-0.022376895 0.25614795 1.1244167 0.10523002
-0.013825102 0.25723499 1.1245 0.10523002
-0.0061282357 0.25666183 1.1248 0.10523002
-0.054094907 0.25979802 1.117125 0.10523002
-0.047866605 0.25951886 1.1205001 0.10523002
-0.037230197 0.25963467 1.1210001 0.10523002
-0.02976943 0.25963467 1.1210001 0.10523002
-0.022303451 0.25957677 1.1207501 0.10523002
-0.0073805377 0.25940305 1.12 0.10523002
-0.0020653517 0.26376432 1.1250001 0.10523002
-0.04539717 0.26427186 1.1167647 0.10523002
-0.038360957 0.26351896 1.1167001 0.10523002
-0.030416239 0.26350921 1.1167858 0.10523002
-0.022226216 0.26398498 1.1168751 0.10523002
-0.013744926 0.2646727 1.1178572 0.10523002
-0.013794366 0.26199985 1.1220001 0.10523002
-0.0057179141 0.26370576 1.1169091 0.10523002
-0.052983169 0.26432842 1.1105001 0.10523002
-0.050812483 0.26354468 1.115 0.10523002
-0.037592985 0.26704592 1.1128 0.10523002
-0.031292539 0.2674174 1.112 0.10523002
-0.0066957152 0.26737276 1.1124001 0.10523002
-0.045795549 0.27266064 1.1167334 0.10523002
-0.022133818 0.26818317 1.1122501 0.10523002
-0.013681356 0.26830375 1.1127501 0.10523002
-0.039356738 0.27346218 1.1148001 0.10523002
-0.036563374 0.27328584 1.1115 0.10523002
-0.030491302 0.27253103 1.1084377 0.10523002
-0.022306474 0.27186325 1.1086924 0.10523002
-0.013390197 0.27190062 1.1088463 0.10523002
-0.044344824 0.27666399 1.1123334 0.10523002
-0.040175222 0.27707851 1.1140001 0.10523002
-0.021506418 0.27561161 1.1032859 0.10523002
-0.044708919 0.27828249 1.1082501 0.10523002
-0.038279753 0.27858448 1.1082 0.10523002
-0.032556135 0.27744246 1.1070001 0.10523002
-0.028281596 0.27681592 1.1045001 0.10523002
-0.068356261 0.23148754 1.1398572 0.10422548
-0.061742619 0.23272537 1.140625 0.10422548
-0.0647875 0.23739547 1.1370001 0.10422548
-0.061491895 0.24101305 1.1348825 0.10422548
-0.054517649 0.2384765 1.1370001 0.10422548
-0.066674776 0.24072562 1.1323334 0.10422548
-0.053653941 0.24148045 1.1358751 0.10422548
-0.059974745 0.24766463 1.1323334 0.10422548
-0.056028113 0.24879289 1.1347501 0.10422548
-0.053027432 0.24882722 1.1398335 0.10422548
-0.047576036 0.2475608 1.1390001 0.10422548
-0.043090835 0.24884745 1.135 0.10422548
-0.06236269 0.25065899 1.1273751 0.10422548
-0.050133359 0.25279015 1.148 0.10422548
-0.047546804 0.25602213 1.1488001 0.10422548
-0.045767378 0.25279015 1.148 0.10422548
-0.05411955 0.25427929 1.1400001 0.10422548
-0.051180232 0.25583971 1.1470001 0.10422548
-0.057993617 0.25334808 1.131 0.10422548
-0.053785969 0.25523242 1.133 0.10422548
-0.045408573 0.25514013 1.1390001 0.10422548
-0.045918539 0.25538364 1.1336666 0.10422548
-0.054890305 0.25663981 1.1247 0.10422548
0.031477585 0.19370167 1.126 0.44846272
0.026133986 0.19717923 1.1420001 0.44846272
0.028032921 0.19527996 1.131 0.44846272
0.030397085 0.19666125 1.1390001 0.44846272
0.028503856 0.20184264 1.1500001 0.44846272
0.03120164 0.20152493 1.1420001 0.44846272
0.035087675 0.19481219 1.1160001 0.44846272
0.041864626 0.19418772 1.1100001 0.44846272
0.033232339 0.19852251 1.125 0.44846272
0.035815202 0.2012563 1.1188 0.44846272
0.040344447 0.19669904 1.1146667 0.44846272
0.048515618 0.19546379 1.1076666 0.44846272
0.030637272 0.20476419 1.148 0.44846272
0.033758495 0.20310503 1.1306667 0.44846272
0.041442186 0.20111726 1.1156665 0.44846272
0.030592794 0.20882531 1.1463333 0.44846272
0.031867687 0.20984252 1.14 0.44846272
0.028305568 0.21020876 1.1420001 0.44846272
0.034724135 0.20606768 1.1156667 0.44846272
0.041316457 0.20473266 1.1122501 0.44846272
0.032091241 0.20982067 1.1225001 0.44846272
0.035931844 0.2080626 1.1093334 0.44846272
0.042218324 0.20714144 1.1081667 0.44846272
0.030423773 0.21417619 1.1400001 0.44846272
0.027200712 0.21875042 1.1412501 0.44846272
0.0289219 0.21646427 1.1237501 0.44846272
0.03499103 0.21049567 1.1018333 0.44846272
0.041919898 0.20881622 1.1003333 0.44846272
0.032588087 0.21705809 1.1104 0.44846272
0.037534516 0.21082966 1.0945001 0.44846272
0.02406732 0.2220346 1.1470001 0.44846272
0.029324703 0.21922392 1.1187501 0.44846272
0.035390858 0.2165897 1.1018572 0.44846272
0.019247765 0.22527575 1.1413335 0.44846272
0.024850793 0.22147898 1.133 0.44846272
0.037483074 0.21365976 1.0930001 0.44846272
0.019508528 0.22628519 1.1355001 0.44846272
0.024303526 0.22263463 1.1243334 0.44846272
0.020411126 0.22648238 1.1257501 0.44846272
0.026181739 0.22479293 1.1163001 0.44846272
0.031848237 0.22306073 1.1140001 0.44846272
0.033851281 0.2249485 1.1102501 0.44846272
0.03644393 0.22585274 1.1035 0.44846272
0.017294884 0.23096913 1.132 0.44846272
0.021390118 0.22765984 1.1210001 0.44846272
0.027979936 0.22705941 1.1118001 0.44846272
0.018262349 0.2328608 1.1255001 0.44846272
0.020517999 0.23324288 1.117125 0.44846272
0.026451934 0.2327857 1.109875 0.44846272
0.031676702 0.22923359 1.108 0.44846272
0.017228678 0.24116476 1.1276667 0.44846272
0.02010606 0.2412028 1.1174287 0.44846272
0.02700269 0.240541 1.1107501 0.44846272
0.031629052 0.241512 1.1063334 0.44846272
0.023374887 0.243185 1.1140001 0.44846272
0.029174101 0.2482578 1.113 0.44846272
0.024640677 0.19384432 1.1744287 0.10537983
0.025586046 0.19586352 1.1665001 0.10537983
0.018152537 0.20143725 1.1749091 0.10537983
0.022420509 0.19840837 1.1750001 0.10537983
0.023356119 0.20132375 1.166 0.10537983
0.016428543 0.20618922 1.1726667 0.10537983
0.026545906 0.20359683 1.1600001 0.10537983
0.010767123 0.20712014 1.1712 0.10537983
0.018068146 0.21012485 1.1681001 0.10537983
0.023698311 0.20896687 1.1646667 0.10537983
0.0097715911 0.21081948 1.1683637 0.10537983
0.02759161 0.20942283 1.1576668 0.10537983
0.0020306865 0.21819317 1.1732501 0.10537983
0.0093632648 0.21799116 1.1721667 0.10537983
0.012841386 0.21656786 1.1675 0.10537983
0.017232815 0.2164931 1.1641251 0.10537983
0.022921709 0.21475007 1.1626668 0.10537983
0.0045574578 0.21907535 1.1780001 0.10537983
0.0067974944 0.21907535 1.1780001 0.10537983
0.024660369 0.21715866 1.1578335 0.10537983
0.026874729 0.21724321 1.1505001 0.10537983
0.0067974944 0.2213154 1.1780001 0.10537983
0.018808397 0.21884634 1.159 0.10537983
0.0023114316 0.22273308 1.1736668 0.10537983
0.013395204 0.22375031 1.1673334 0.10537983
0.021972097 0.21961981 1.1515 0.10537983
0.015556992 0.22292033 1.1630001 0.10537983
0.017049884 0.22465482 1.1572857 0.10537983
0.02084149 0.22251855 1.1495001 0.10537983
0.015458897 0.23250133 1.1556668 0.10537983
0.013253679 0.23346663 1.1550001 0.10537983
0.018472264 0.2494791 1.1252 0.15966824
0.021375807 0.2498747 1.12025 0.15966824
0.02535492 0.2493185 1.1164546 0.15966824
0.016472951 0.2566388 1.1250001 0.15966824
0.019378342 0.25789168 1.1168183 0.15966824
0.025740674 0.25625783 1.1145556 0.15966824
0.027586775 0.25778177 1.113 0.15966824
0.012943853 0.25911099 1.128 0.15966824
0.033791974 0.25750023 1.1083751 0.15966824
0.012900821 0.26359013 1.1242501 0.15966824
0.015008552 0.26199985 1.1220001 0.15966824
0.015481762 0.26472688 1.11775 0.15966824
0.019239826 0.26511389 1.10975 0.15966824
0.026191592 0.26473746 1.1086669 0.15966824
0.034398131 0.26439852 1.1084287 0.15966824
0.011797704 0.2681613 1.1210001 0.15966824
0.011423282 0.27193096 1.1190001 0.15966824
0.014948357 0.27263704 1.1175001 0.15966824
0.012174659 0.27433428 1.123 0.15966824
0.01642249 0.27279645 1.1095001 0.15966824
0.021084817 0.2685363 1.105 0.15966824
0.028439097 0.2685363 1.105 0.15966824
0.034742769 0.2685363 1.105 0.15966824
0.03420914 0.27140394 1.1012999 0.15966824
0.041502696 0.27034721 1.1004 0.15966824
0.012886477 0.27718157 1.123 0.15966824
0.011745082 0.27863798 1.1160001 0.15966824
0.012047123 0.28134409 1.1113334 0.15966824
0.013150403 0.24036133 1.1460001 0.21622866
0.01532959 0.24036227 1.146 0.21622866
0.017417109 0.23585404 1.1400001 0.21622866
-0.0046178983 0.24037266 1.1391667 0.21622866
0.013104503 0.2395252 1.1420001 0.21622866
7.5281969e-05 0.24363297 1.146 0.21622866
0.0022603706 0.24863598 1.149 0.21622866
0.017386552 0.24193223 1.138 0.21622866
7.5019205e-05 0.24495418 1.1420001 0.21622866
0.013138928 0.24559768 1.1450001 0.21622866
0.015322902 0.24679357 1.1455001 0.21622866
7.4969939e-05 0.2502147 1.14125 0.21622866
0.013104503 0.2503784 1.1420001 0.21622866
0.015302837 0.25082165 1.1440001 0.21622866
-0.0020919717 0.25200045 1.1395 0.21622866
0.017264327 0.24990094 1.13 0.21622866
