# .PCD v0.7 - Point Cloud Data file format
VERSION 0.7
FIELDS x y z rgba
SIZE 4 4 4 4
TYPE F F F U
COUNT 1 1 1 1
WIDTH 1075
HEIGHT 1
VIEWPOINT 0 0 0 1 0 0 0
POINTS 1075
DATA ascii
0.022640487 -0.0045149024 1.079 4285822058
0.024692271 -0.0045149024 1.079 4285822058
0.026719267 -0.0045107179 1.0780001 4285887851
0.028769147 -0.0045107179 1.0780001 4285887851
0.030819027 -0.0045107179 1.0780001 4285953644
0.032899398 -0.0045149024 1.079 4285822058
0.034983572 -0.0045190868 1.08 4286019435
0.037071552 -0.0045232708 1.0810001 4285361505
0.039127138 -0.0045232708 1.0810001 4283453508
0.041182723 -0.0045232708 1.0810001 4282729785
0.043238308 -0.0045232708 1.0810001 4282466613
0.045293894 -0.0045232708 1.0810001 4283979852
0.047305677 -0.0045190868 1.08 4285624677
0.049359359 -0.0045190868 1.08 4285822058
0.051317837 -0.0045107179 1.0780001 4285822058
0.053367715 -0.0045107179 1.0780001 4285822060
0.055417597 -0.0045107179 1.0780001 4285822060
0.057467479 -0.0045107179 1.0780001 4285887599
0.059517361 -0.0045107179 1.0780001 4285887599
0.061510127 -0.004506534 1.077 4285887600
0.063558109 -0.004506534 1.077 4285822320
0.065606087 -0.004506534 1.077 4285887600
0.067654066 -0.004506534 1.077 4285756527
0.069702044 -0.004506534 1.077 4285821807
0.07175003 -0.004506534 1.077 4285887599
0.073798008 -0.004506534 1.077 4285887600
0.075775564 -0.0045023491 1.0760001 4285887599
0.077821642 -0.0045023491 1.0760001 4285821807
0.079867713 -0.0045023491 1.0760001 4285821806
0.081761539 -0.0044939807 1.074 4285821806
0.08380381 -0.0044939807 1.074 4285821806
0.085926019 -0.0044981646 1.075 4285821806
0.088052027 -0.0045023491 1.0760001 4285822060
0.090098105 -0.0045023491 1.0760001 4285821806
0.092144184 -0.0045023491 1.0760001 4285822060
0.094102725 -0.0044981646 1.075 4285887853
0.096146896 -0.0044981646 1.075 4285887853
0.098099731 -0.0044939807 1.074 4285756524
0.10014201 -0.0044939807 1.074 4285822317
0.10218428 -0.0044939807 1.074 4285888110
0.10412951 -0.0044897962 1.0730001 4285953903
0.10616989 -0.0044897962 1.0730001 4285888110
0.10831111 -0.0044939807 1.074 4285822317
0.11035338 -0.0044939807 1.074 4285822317
0.11239566 -0.0044939807 1.074 4285822317
0.11433138 -0.0044897962 1.0730001 4285888110
0.11626329 -0.0044856118 1.072 4285822317
0.11819141 -0.0044814278 1.0710001 4285690731
0.12022799 -0.0044814278 1.0710001 4285690731
0.12237871 -0.0044856118 1.072 4285756524
0.12441718 -0.0044856118 1.072 4285822317
0.12633769 -0.0044814278 1.0710001 4285888110
0.1282544 -0.0044772434 1.0700001 4285888110
0.13028906 -0.0044772434 1.0700001 4285953905
0.13220006 -0.004473059 1.069 4285822319
0.13423283 -0.004473059 1.069 4285822577
0.13639307 -0.0044772434 1.0700001 4286019956
0.13920397 -0.0045023491 1.0760001 4285954933
0.14269406 -0.0045483769 1.087 4285494384
0.14595962 -0.0045860363 1.0960001 4284704868
0.14831388 -0.0045944047 1.098 4284705127
0.15053877 -0.0045985891 1.0990001 4284705127
0.15248971 -0.0045944047 1.098 4284836713
0.15457761 -0.0045944047 1.098 4284968297
0.15680823 -0.0045985891 1.0990001 4285034090
0.15904261 -0.0046027736 1.1 4285034090
0.16113433 -0.0046027736 1.1 4285034090
0.16292927 -0.0045944047 1.098 4285099883
0.16501717 -0.0045944047 1.098 4285231469
0.16710509 -0.0045944047 1.098 4285099885
0.169193 -0.0045944047 1.098 4285165678
0.17128092 -0.0045944047 1.098 4285231471
0.17336883 -0.0045944047 1.098 4285297262
0.17529695 -0.0045902203 1.097 4285363057
0.17738296 -0.0045902203 1.097 4285428848
0.17946897 -0.0045902203 1.097 4285428850
0.18138947 -0.0045860363 1.0960001 4285363055
0.18330619 -0.0045818519 1.095 4285363055
0.18538839 -0.0045818519 1.095 4285428848
0.1874706 -0.0045818519 1.095 4285428848
0.1895528 -0.0045818519 1.095 4285494895
0.19163501 -0.0045818519 1.095 4285494641
0.19389412 -0.0045860363 1.0960001 4285429102
0.19597822 -0.0045860363 1.0960001 4285428848
0.19824307 -0.0045902203 1.097 4285363055
-0.37814754 -0.0025224644 1.105 4285758067
-0.37604633 -0.0025224644 1.105 4285758067
-0.37360668 -0.0025201817 1.1040001 4285692274
-0.37184387 -0.0025224644 1.105 4285692274
-0.37007728 -0.002524747 1.1060001 4285757556
-0.36830682 -0.00252703 1.107 4285823349
-0.36620182 -0.00252703 1.107 4285823349
-0.36376789 -0.002524747 1.1060001 4285757556
-0.36133775 -0.0025224644 1.105 4285691761
-0.35923654 -0.0025224644 1.105 4285625968
-0.35681212 -0.0025201817 1.1040001 4285625968
-0.35471278 -0.0025201817 1.1040001 4285691761
-0.35261348 -0.0025201817 1.1040001 4285560175
-0.35051414 -0.0025201817 1.1040001 4285560175
-0.34873042 -0.0025224644 1.105 4285560175
-0.3466292 -0.0025224644 1.105 4285560175
-0.34452799 -0.0025224644 1.105 4285560174
-0.34211686 -0.0025201817 1.1040001 4285494381
-0.33970955 -0.002517899 1.103 4285494381
-0.33761212 -0.002517899 1.103 4285363308
-0.33551469 -0.002517899 1.103 4285429102
-0.33311504 -0.0025156161 1.102 4285298286
-0.33101952 -0.0025156161 1.102 4285166700
-0.328924 -0.0025156161 1.102 4285166700
-0.32682848 -0.0025156161 1.102 4285231723
-0.32443827 -0.0025133332 1.1010001 4285231723
-0.32234466 -0.0025133332 1.1010001 4285231209
-0.31821492 -0.0024973541 1.0940001 4285165416
-0.31555668 -0.0024927885 1.092 4285757037
-0.30859998 -0.0024539812 1.075 4285888623
-0.30627063 -0.0024516983 1.074 4286019437
-0.30366182 -0.002447133 1.072 4285887849
-0.30162337 -0.002447133 1.072 4286084200
-0.29986435 -0.0024494156 1.0730001 4286215786
-0.297824 -0.0024494156 1.0730001 4286346856
-0.29578361 -0.0024494156 1.0730001 4286281063
-0.29401699 -0.0024516983 1.074 4286084201
-0.29224658 -0.0024539812 1.075 4286149994
-0.29047236 -0.0024562641 1.0760001 4286281580
-0.28869435 -0.0024585468 1.077 4286215787
-0.28664637 -0.0024585468 1.077 4286149994
-0.28459838 -0.0024585468 1.077 4286018408
-0.28255039 -0.0024585468 1.077 4286084200
-0.28050241 -0.0024585468 1.077 4286149993
-0.27845445 -0.0024585468 1.077 4286084200
-0.27614981 -0.0024562641 1.0760001 4286149993
-0.27384898 -0.0024539812 1.075 4286084200
-0.27155197 -0.0024516983 1.074 4286084200
-0.26950967 -0.0024516983 1.074 4286018661
-0.26771647 -0.0024539812 1.075 4286018661
-0.26591942 -0.0024562641 1.0760001 4286018661
-0.26411858 -0.0024585468 1.077 4286084454
-0.2620706 -0.0024585468 1.077 4286084200
-0.26026407 -0.0024608297 1.0780001 4286084200
-0.2584537 -0.0024631124 1.079 4286084200
-0.25663954 -0.002465395 1.08 4286149993
-0.25435013 -0.0024631124 1.079 4286149993
-0.25206456 -0.0024608297 1.0780001 4286149993
-0.25001466 -0.0024608297 1.0780001 4286084200
-0.24796477 -0.0024608297 1.0780001 4286018407
-0.24591489 -0.0024608297 1.0780001 4286149993
-0.24409123 -0.0024631124 1.079 4286149993
-0.24136649 -0.0024562641 1.0760001 4286149994
-0.23932041 -0.0024562641 1.0760001 4286149994
-0.23727433 -0.0024562641 1.0760001 4286149994
-0.23544687 -0.0024585468 1.077 4286149994
-0.23361561 -0.0024608297 1.0780001 4286149994
-0.23178053 -0.0024631124 1.079 4286149994
-0.22994165 -0.002465395 1.08 4286018667
-0.22788797 -0.002465395 1.08 4285887081
-0.22583428 -0.002465395 1.08 4286018667
-0.22419502 -0.0024699606 1.082 4285952874
-0.22213754 -0.0024699606 1.082 4286479218
-0.22008005 -0.0024699606 1.082 4285294944
-0.21822405 -0.0024722435 1.0830001 4282531638
-0.21616466 -0.0024722435 1.0830001 4281939501
-0.21410528 -0.0024722435 1.0830001 4282400052
-0.21204589 -0.0024722435 1.0830001 4282136880
-0.20959872 -0.0024676777 1.0810001 4281413157
-0.20735113 -0.002465395 1.08 4282005294
-0.20529744 -0.002465395 1.08 4284505428
-0.20343196 -0.0024676777 1.0810001 4286018667
-0.20137638 -0.0024676777 1.0810001 4285887081
-0.19932079 -0.0024676777 1.0810001 4285558370
-0.19726521 -0.0024676777 1.0810001 4285755749
-0.19520962 -0.0024676777 1.0810001 4285821541
-0.19315404 -0.0024676777 1.0810001 4285821541
-0.19127522 -0.0024699606 1.082 4285887334
-0.18921775 -0.0024699606 1.082 4285887335
-0.18681429 -0.002465395 1.08 4285953128
-0.1847606 -0.002465395 1.08 4285953128
-0.1828761 -0.0024676777 1.0810001 4285953128
-0.18082051 -0.0024676777 1.0810001 4286018667
-0.17893031 -0.0024699606 1.082 4286084460
-0.17703629 -0.0024722435 1.0830001 4285558118
-0.17481533 -0.0024699606 1.082 4285887083
-0.17275785 -0.0024699606 1.082 4285952876
-0.17054258 -0.0024676777 1.0810001 4285952876
-0.168487 -0.0024676777 1.0810001 4285097567
-0.16658539 -0.0024699606 1.082 4282202675
-0.16452789 -0.0024699606 1.082 4281478950
-0.16262056 -0.0024722435 1.0830001 4281742376
-0.16070943 -0.0024745262 1.0840001 4281413411
-0.15879449 -0.0024768088 1.085 4281544997
-0.15673129 -0.0024768088 1.085 4281742376
-0.15466811 -0.0024768088 1.085 4285032026
-0.15246427 -0.0024745262 1.0840001 4285953128
-0.15026423 -0.0024722435 1.0830001 4285887335
-0.148068 -0.0024699606 1.082 4285755749
-0.14601052 -0.0024699606 1.082 4285755749
-0.14395303 -0.0024699606 1.082 4285755749
-0.14189553 -0.0024699606 1.082 4285821542
-0.13996728 -0.0024722435 1.0830001 4285887335
-0.13790789 -0.0024722435 1.0830001 4285887335
-0.13584851 -0.0024722435 1.0830001 4285821542
-0.13391265 -0.0024745262 1.0840001 4285755749
-0.13172972 -0.0024722435 1.0830001 4285953128
-0.12967034 -0.0024722435 1.0830001 4285755749
-0.12749313 -0.0024699606 1.082 4285624163
-0.12543564 -0.0024699606 1.082 4285755749
-0.12326412 -0.0024676777 1.0810001 4286084714
-0.12132066 -0.0024699606 1.082 4286216300
-0.1193734 -0.0024722435 1.0830001 4285229405
-0.11742233 -0.0024745262 1.0840001 4283781959
-0.11546747 -0.0024768088 1.085 4281413925
-0.11340427 -0.0024768088 1.085 4281545511
-0.11134108 -0.0024768088 1.085 4281150753
-0.1092779 -0.0024768088 1.085 4281479718
-0.1072147 -0.0024768088 1.085 4281216546
-0.10515151 -0.0024768088 1.085 4281940269
-0.1029933 -0.0024745262 1.0840001 4286085228
-0.1008389 -0.0024722435 1.0830001 4286282607
-0.098779507 -0.0024722435 1.0830001 4285690470
-0.096630819 -0.0024699606 1.082 4285690470
-0.094573326 -0.0024699606 1.082 4285624677
-0.092515841 -0.0024699606 1.082 4285690470
-0.090458356 -0.0024699606 1.082 4285690470
-0.088482566 -0.0024722435 1.0830001 4285690470
-0.086423181 -0.0024722435 1.0830001 4285690472
-0.084363788 -0.0024722435 1.0830001 4285624679
-0.082228407 -0.0024699606 1.082 4285493093
-0.080096826 -0.0024676777 1.0810001 4285558886
-0.078041241 -0.0024676777 1.0810001 4285624679
-0.075774774 -0.0024608297 1.0780001 4285690472
-0.073724896 -0.0024608297 1.0780001 4285690474
-0.07167501 -0.0024608297 1.0780001 4285624681
-0.069625132 -0.0024608297 1.0780001 4285493095
-0.067637943 -0.0024631124 1.079 4285427300
-0.06576851 -0.0024699606 1.082 4283123775
-0.063828781 -0.0024745262 1.0840001 4281347618
-0.061881457 -0.0024790918 1.0860001 4281216032
-0.059871446 -0.0024813747 1.087 4281281825
-0.05780445 -0.0024813747 1.087 4281873708
-0.055634905 -0.0024768088 1.085 4281544743
-0.053522337 -0.0024745262 1.0840001 4283781705
-0.051413573 -0.0024722435 1.0830001 4285821288
-0.049263041 -0.0024676777 1.0810001 4285821290
-0.047163788 -0.002465395 1.08 4285952876
-0.045110103 -0.002465395 1.08 4286018669
-0.043056421 -0.002465395 1.08 4286018669
-0.040964767 -0.0024631124 1.079 4285952878
-0.038912985 -0.0024631124 1.079 4285887085
-0.036861204 -0.0024631124 1.079 4285887085
-0.034809418 -0.0024631124 1.079 4285887083
-0.032757636 -0.0024631124 1.079 4285756267
-0.030734314 -0.002465395 1.08 4285690472
-0.028707186 -0.0024676777 1.0810001 4285558886
-0.0266516 -0.0024676777 1.0810001 4285558886
-0.024596015 -0.0024676777 1.0810001 4285624679
-0.022519577 -0.002465395 1.08 4285690472
-0.020465894 -0.002465395 1.08 4285690472
-0.018429259 -0.0024676777 1.0810001 4285690472
-0.016388819 -0.0024699606 1.082 4285295714
-0.014357822 -0.0024745262 1.0840001 4281545513
-0.01231922 -0.0024790918 1.0860001 4280821790
-0.010263569 -0.0024813747 1.087 4281084962
-0.0081965737 -0.0024813747 1.087 4281216548
-0.0061295787 -0.0024813747 1.087 4281019169
-0.0040588463 -0.0024790918 1.0860001 4281348134
-0.0019919169 -0.0024768088 1.085 4284703577
7.1143433e-05 -0.0024722435 1.0830001 4285952874
0.0021305322 -0.0024722435 1.0830001 4285821542
0.0041821832 -0.0024676777 1.0810001 4285690470
0.0062319981 -0.002465395 1.08 4285822056
0.0082933549 -0.0024676777 1.0810001 4285822058
0.010339366 -0.002465395 1.08 4285690472
0.01239305 -0.002465395 1.08 4285690472
0.014433358 -0.0024631124 1.079 4285690472
0.016485142 -0.0024631124 1.079 4285690472
0.018536923 -0.0024631124 1.079 4285756265
0.020626867 -0.0024676777 1.0810001 4285756265
0.022703437 -0.0024699606 1.082 4285822058
0.024738038 -0.0024676777 1.0810001 4285822058
0.026768839 -0.002465395 1.08 4285887851
0.028822523 -0.002465395 1.08 4285887851
0.030847618 -0.0024631124 1.079 4285887851
0.032960381 -0.0024676777 1.0810001 4285756265
0.035113141 -0.0024745262 1.0840001 4285295714
0.037174433 -0.0024745262 1.0840001 4281940269
0.039199531 -0.0024722435 1.0830001 4280098065
0.041220821 -0.0024699606 1.082 4281019167
0.043278307 -0.0024699606 1.082 4280755995
0.045293894 -0.0024676777 1.0810001 4280427030
0.047349479 -0.0024676777 1.0810001 4282598199
0.049405064 -0.0024676777 1.0810001 4285822058
0.051365443 -0.0024631124 1.079 4285822058
0.053417224 -0.0024631124 1.079 4285822060
0.055520412 -0.002465395 1.08 4285822060
0.057574097 -0.002465395 1.08 4285821806
0.059627779 -0.002465395 1.08 4285887599
0.061681464 -0.002465395 1.08 4285887600
0.06373515 -0.002465395 1.08 4285887600
0.065727912 -0.0024631124 1.079 4285887600
0.067779697 -0.0024631124 1.079 4285821807
0.069831483 -0.0024631124 1.079 4285821807
0.071816646 -0.0024608297 1.0780001 4285821807
0.073866531 -0.0024608297 1.0780001 4285887600
0.075916409 -0.0024608297 1.0780001 4285887600
0.077966288 -0.0024608297 1.0780001 4285821807
0.079867713 -0.0024562641 1.0760001 4285756014
0.081989922 -0.0024585468 1.077 4285821806
0.0840379 -0.0024585468 1.077 4285821806
0.086165816 -0.0024608297 1.0780001 4285821806
0.088215694 -0.0024608297 1.0780001 4285821806
0.09026558 -0.0024608297 1.0780001 4285821806
0.092315458 -0.0024608297 1.0780001 4285887599
0.094365336 -0.0024608297 1.0780001 4285887853
0.096415222 -0.0024608297 1.0780001 4285887853
0.098282419 -0.0024562641 1.0760001 4285690731
0.1003285 -0.0024562641 1.0760001 4285756524
0.10246972 -0.0024585468 1.077 4285822317
0.10442065 -0.0024562641 1.0760001 4285888110
0.10646673 -0.0024562641 1.0760001 4285822317
0.10861365 -0.0024585468 1.077 4285822317
0.11066163 -0.0024585468 1.077 4285822317
0.11270961 -0.0024585468 1.077 4285822317
0.11465104 -0.0024562641 1.0760001 4285756524
0.11669712 -0.0024562641 1.0760001 4285690731
0.11863284 -0.0024539812 1.075 4285690731
0.12067701 -0.0024539812 1.075 4285690731
0.12272119 -0.0024539812 1.075 4285822317
0.12476537 -0.0024539812 1.075 4285888110
0.12669158 -0.0024516983 1.074 4285953903
0.12861399 -0.0024494156 1.0730001 4285953903
0.13065436 -0.0024494156 1.0730001 4286019698
0.13257107 -0.002447133 1.072 4285888113
0.13473511 -0.0024494156 1.0730001 4285822577
0.13690296 -0.0024516983 1.074 4285954163
0.13985083 -0.0024676777 1.0810001 4285889142
0.14321914 -0.0024905056 1.0910001 4285297005
0.14649232 -0.0025110506 1.1 4284573541
0.1487191 -0.0025133332 1.1010001 4284639334
0.15081273 -0.0025133332 1.1010001 4284770920
0.15304522 -0.0025156161 1.102 4284836713
0.15514074 -0.0025156161 1.102 4284968297
0.15723626 -0.0025156161 1.102 4285034090
0.15933178 -0.0025156161 1.102 4285099883
0.1614273 -0.0025156161 1.102 4285099883
0.16352282 -0.0025156161 1.102 4285231723
0.16531776 -0.0025110506 1.1 4285231469
0.16740948 -0.0025110506 1.1 4285231471
0.16950119 -0.0025110506 1.1 4285297264
0.17159291 -0.0025110506 1.1 4285297262
0.1738425 -0.0025133332 1.1010001 4285363055
0.17593612 -0.0025133332 1.1010001 4285363055
0.17786805 -0.0025110506 1.1 4285363055
0.17995976 -0.0025110506 1.1 4285363055
0.18188599 -0.0025087679 1.0990001 4285363055
0.18380839 -0.002506485 1.098 4285363055
0.18589629 -0.002506485 1.098 4285428848
0.18781301 -0.0025042021 1.097 4285429102
0.18989903 -0.0025042021 1.097 4285494895
0.19198503 -0.0025042021 1.097 4285494895
0.19424795 -0.002506485 1.098 4285429102
0.19651468 -0.0025087679 1.0990001 4285429102
0.19860449 -0.0025087679 1.0990001 4285363309
-0.37883195 -0.00042199608 1.107 4285758067
-0.37672693 -0.00042199608 1.107 4285692274
-0.37428352 -0.00042161488 1.1060001 4285758067
-0.3721804 -0.00042161488 1.1060001 4285758067
-0.37041184 -0.00042199608 1.107 4285889142
-0.36863953 -0.00042237728 1.108 4285889142
-0.36653262 -0.00042237728 1.108 4285889142
-0.36442569 -0.00042237728 1.108 4285823349
-0.36199176 -0.00042199608 1.107 4285691761
-0.35988674 -0.00042199608 1.107 4285625968
-0.35745853 -0.00042161488 1.1060001 4285625968
-0.35503408 -0.00042123368 1.105 4285625968
-0.35325226 -0.00042161488 1.1060001 4285625968
-0.35114914 -0.00042161488 1.1060001 4285625968
-0.3493616 -0.00042199608 1.107 4285560175
-0.34757027 -0.00042237728 1.108 4285494382
-0.34515154 -0.00042199608 1.107 4285494381
-0.34273666 -0.00042161488 1.1060001 4285494381
-0.34063354 -0.00042161488 1.1060001 4285494381
-0.33853039 -0.00042161488 1.1060001 4285429101
-0.33612308 -0.00042123368 1.105 4285429102
-0.33402187 -0.00042123368 1.105 4285232493
-0.33192065 -0.00042123368 1.105 4285363309
-0.32981941 -0.00042123368 1.105 4285297516
-0.3277182 -0.00042123368 1.105 4285297516
-0.32561699 -0.00042123368 1.105 4285231723
-0.32351574 -0.00042123368 1.105 4285165416
-0.31937841 -0.00041856521 1.098 4285099623
-0.31555668 -0.00041627797 1.092 4285559658
-0.31405431 -0.0004170404 1.0940001 4285757037
-0.30969265 -0.00041399073 1.0860001 4285953644
-0.30479491 -0.00041017868 1.0760001 4285887849
-0.30274883 -0.00041017868 1.0760001 4286018407
-0.30098221 -0.00041055988 1.077 4286084200
-0.29865667 -0.00041017868 1.0760001 4286281063
-0.29688627 -0.00041055988 1.077 4286281063
-0.29511204 -0.00041094108 1.0780001 4286149994
-0.29333401 -0.00041132228 1.079 4286215787
-0.29155219 -0.00041170348 1.08 4286215787
-0.28949848 -0.00041170348 1.08 4286215787
-0.2874448 -0.00041170348 1.08 4286084201
-0.28512686 -0.00041132228 1.079 4286084201
-0.28307509 -0.00041132228 1.079 4286149993
-0.28102329 -0.00041132228 1.079 4286215786
-0.27897152 -0.00041132228 1.079 4286084200
-0.27691972 -0.00041132228 1.079 4286084200
-0.27486795 -0.00041132228 1.079 4286084200
-0.27281618 -0.00041132228 1.079 4286084200
-0.27076438 -0.00041132228 1.079 4286018407
-0.26871261 -0.00041132228 1.079 4285952614
-0.26690796 -0.00041170348 1.08 4286018661
-0.26485428 -0.00041170348 1.08 4286084454
-0.2628006 -0.00041170348 1.08 4286149993
-0.26098835 -0.00041208472 1.0810001 4286149993
-0.25917229 -0.00041246592 1.082 4286149993
-0.25735244 -0.00041284712 1.0830001 4286149993
-0.25529307 -0.00041284712 1.0830001 4286215786
-0.25299984 -0.00041246592 1.082 4286149993
-0.25094235 -0.00041246592 1.082 4286084200
-0.24865484 -0.00041208472 1.0810001 4286018407
-0.24682738 -0.00041246592 1.082 4286018408
-0.2447699 -0.00041246592 1.082 4286084201
-0.24203944 -0.00041132228 1.079 4286149994
-0.23998767 -0.00041132228 1.079 4286149994
-0.23815639 -0.00041170348 1.08 4286149994
-0.2361027 -0.00041170348 1.08 4286084201
-0.23404902 -0.00041170348 1.08 4286084201
-0.23221016 -0.00041208472 1.0810001 4286018408
-0.23036748 -0.00041246592 1.082 4286216046
-0.22831 -0.00041246592 1.082 4285689702
-0.2264616 -0.00041284712 1.0830001 4286084460
-0.22440222 -0.00041284712 1.0830001 4285952874
-0.22254814 -0.00041322832 1.0840001 4286018667
-0.22048685 -0.00041322832 1.0840001 4285689702
-0.21802256 -0.00041246592 1.082 4283386947
-0.21596508 -0.00041246592 1.082 4281742122
-0.21351218 -0.00041170348 1.08 4281544743
-0.21126272 -0.00041132228 1.079 4282531638
-0.20940481 -0.00041170348 1.08 4282400052
-0.20735113 -0.00041170348 1.08 4282071087
-0.20567764 -0.00041246592 1.082 4283452740
-0.20362015 -0.00041246592 1.082 4285294944
-0.20174894 -0.00041284712 1.0830001 4286216046
-0.19987395 -0.00041322832 1.0840001 4286413679
-0.19781266 -0.00041322832 1.0840001 4285887335
-0.19575137 -0.00041322832 1.0840001 4285887334
-0.19369008 -0.00041322832 1.0840001 4285887334
-0.19180556 -0.00041360952 1.085 4285887334
-0.18974237 -0.00041360952 1.085 4285887335
-0.18767917 -0.00041360952 1.085 4285953128
-0.18544492 -0.00041322832 1.0840001 4285953128
-0.18338363 -0.00041322832 1.0840001 4285953128
-0.18132234 -0.00041322832 1.0840001 4286018667
-0.1794264 -0.00041360952 1.085 4286216046
-0.17752668 -0.00041399073 1.0860001 4285755497
-0.17546159 -0.00041399073 1.0860001 4285887083
-0.17323683 -0.00041360952 1.085 4286018669
-0.17101589 -0.00041322832 1.0840001 4286084462
-0.16879873 -0.00041284712 1.0830001 4285097567
-0.16658539 -0.00041246592 1.082 4282268468
-0.16437583 -0.00041208472 1.0810001 4282531638
-0.16232024 -0.00041208472 1.0810001 4282729017
-0.16041292 -0.00041246592 1.082 4282465845
-0.15850179 -0.00041284712 1.0830001 4282729017
-0.15658686 -0.00041322832 1.0840001 4281939501
-0.15466811 -0.00041360952 1.085 4284768600
-0.15274557 -0.00041399073 1.0860001 4285492323
-0.15068048 -0.00041399073 1.0860001 4285755495
-0.14861538 -0.00041399073 1.0860001 4285689702
-0.14655028 -0.00041399073 1.0860001 4285689702
-0.14435215 -0.00041360952 1.085 4285755495
-0.14228895 -0.00041360952 1.085 4285821288
-0.14022577 -0.00041360952 1.085 4285887081
-0.13816257 -0.00041360952 1.085 4285887081
-0.13622482 -0.00041399073 1.0860001 4285821288
-0.13428326 -0.00041437196 1.087 4285755495
-0.13221626 -0.00041437196 1.087 4285821542
-0.13002954 -0.00041399073 1.0860001 4285821542
-0.12796445 -0.00041399073 1.0860001 4285755749
-0.12589936 -0.00041399073 1.0860001 4285558370
-0.12372024 -0.00041360952 1.085 4285689956
-0.12176917 -0.00041399073 1.0860001 4285953128
-0.11970408 -0.00041399073 1.0860001 4285360991
-0.11763898 -0.00041399073 1.0860001 4284110924
-0.11546747 -0.00041360952 1.085 4282071855
-0.11329975 -0.00041322832 1.0840001 4282335027
-0.11113584 -0.00041284712 1.0830001 4282598199
-0.10907646 -0.00041284712 1.0830001 4282795578
-0.10711588 -0.00041322832 1.0840001 4281677097
-0.10515151 -0.00041360952 1.085 4281282339
-0.10308832 -0.00041360952 1.085 4285953642
-0.10093201 -0.00041322832 1.0840001 4285361505
-0.098961934 -0.00041360952 1.085 4285690470
-0.096898742 -0.00041360952 1.085 4285624677
-0.09483555 -0.00041360952 1.085 4285624677
-0.092772357 -0.00041360952 1.085 4285624677
-0.090792768 -0.00041399073 1.0860001 4285624677
-0.088727675 -0.00041399073 1.0860001 4285690470
-0.086662583 -0.00041399073 1.0860001 4285624679
-0.084519595 -0.00041360952 1.085 4285624679
-0.082380399 -0.00041322832 1.0840001 4285427300
-0.080319107 -0.00041322832 1.0840001 4285558886
-0.078041241 -0.00041208472 1.0810001 4285690472
-0.075915366 -0.00041170348 1.08 4285690472
-0.073861681 -0.00041170348 1.08 4285624679
-0.071874484 -0.00041208472 1.0810001 4285558886
-0.069818899 -0.00041208472 1.0810001 4285558888
-0.067825995 -0.00041246592 1.082 4285558886
-0.065829292 -0.00041284712 1.0830001 4282860603
-0.063828781 -0.00041322832 1.0840001 4281676583
-0.061824478 -0.00041360952 1.085 4282137134
-0.059706207 -0.00041322832 1.0840001 4282466099
-0.057644919 -0.00041322832 1.0840001 4282400306
-0.055583626 -0.00041322832 1.0840001 4281281825
-0.053522337 -0.00041322832 1.0840001 4283321154
-0.051461048 -0.00041322832 1.0840001 4285821288
-0.049399756 -0.00041322832 1.0840001 4285755495
-0.047294796 -0.00041284712 1.0830001 4285821288
-0.045235407 -0.00041284712 1.0830001 4285952876
-0.043176018 -0.00041284712 1.0830001 4286018669
-0.041116629 -0.00041284712 1.0830001 4285952876
-0.03905724 -0.00041284712 1.0830001 4285952876
-0.036997851 -0.00041284712 1.0830001 4285887083
-0.034906201 -0.00041246592 1.082 4285887083
-0.032848716 -0.00041246592 1.082 4285822060
-0.030819686 -0.00041284712 1.0830001 4285690474
-0.028760297 -0.00041284712 1.0830001 4285558888
-0.02670091 -0.00041284712 1.0830001 4285493095
-0.024618767 -0.00041246592 1.082 4285493095
-0.02256128 -0.00041246592 1.082 4285558888
-0.020503793 -0.00041246592 1.082 4285624681
-0.018446306 -0.00041246592 1.082 4285624681
-0.016403966 -0.00041284712 1.0830001 4285098337
-0.014344578 -0.00041284712 1.0830001 4281479722
-0.012285189 -0.00041284712 1.0830001 4281940273
-0.0102258 -0.00041284712 1.0830001 4282006066
-0.0081739519 -0.00041322832 1.0840001 4282203445
-0.0061183004 -0.00041360952 1.085 4282203445
-0.0040551084 -0.00041360952 1.085 4281216550
-0.0019919169 -0.00041360952 1.085 4284243026
7.1274815e-05 -0.00041360952 1.085 4285822058
0.0021324994 -0.00041322832 1.0840001 4285690472
0.0041937898 -0.00041322832 1.0840001 4285690472
0.0062493091 -0.00041284712 1.0830001 4285756265
0.0083086975 -0.00041284712 1.0830001 4285756265
0.010368086 -0.00041284712 1.0830001 4285690472
0.012427475 -0.00041284712 1.0830001 4285690472
0.014473488 -0.00041246592 1.082 4285690472
0.016530976 -0.00041246592 1.082 4285690472
0.018605642 -0.00041284712 1.0830001 4285690472
0.020665029 -0.00041284712 1.0830001 4285756265
0.022745401 -0.00041322832 1.0840001 4285756265
0.024783807 -0.00041284712 1.0830001 4285822058
0.026793623 -0.00041208472 1.0810001 4285822058
0.028849209 -0.00041208472 1.0810001 4285822058
0.030933384 -0.00041246592 1.082 4285887851
0.033021364 -0.00041284712 1.0830001 4286085230
0.035113141 -0.00041322832 1.0840001 4283387717
0.037174433 -0.00041322832 1.0840001 4281611306
0.039127138 -0.00041208472 1.0810001 4282137650
0.041068431 -0.00041094108 1.0780001 4281742890
0.043118313 -0.00041094108 1.0780001 4282137648
0.045210093 -0.00041132228 1.079 4281545511
0.047349479 -0.00041208472 1.0810001 4280690202
0.04945077 -0.00041246592 1.082 4285756265
0.051508255 -0.00041246592 1.082 4285756265
0.053565744 -0.00041246592 1.082 4285756267
0.05562323 -0.00041246592 1.082 4285822060
0.057680719 -0.00041246592 1.082 4285821806
0.059738204 -0.00041246592 1.082 4285821806
0.061795693 -0.00041246592 1.082 4285821807
0.063853182 -0.00041246592 1.082 4285821807
0.065910667 -0.00041246592 1.082 4285887600
0.067968152 -0.00041246592 1.082 4285821807
0.069960922 -0.00041208472 1.0810001 4285821807
0.072016507 -0.00041208472 1.0810001 4285821807
0.074072093 -0.00041208472 1.0810001 4285821807
0.076198101 -0.00041246592 1.082 4285821807
0.078255586 -0.00041246592 1.082 4285756013
0.080016173 -0.00041094108 1.0780001 4285690220
0.082142174 -0.00041132228 1.079 4285821806
0.08419396 -0.00041132228 1.079 4285821806
0.086245738 -0.00041132228 1.079 4285821806
0.08846119 -0.00041208472 1.0810001 4285821806
0.090516776 -0.00041208472 1.0810001 4285821806
0.092572361 -0.00041208472 1.0810001 4285821806
0.09454041 -0.00041170348 1.08 4285887853
0.096683532 -0.00041208472 1.0810001 4285887853
0.098647773 -0.00041170348 1.08 4285690731
0.1007947 -0.00041208472 1.0810001 4285756524
0.10285029 -0.00041208472 1.0810001 4285822317
0.10480883 -0.00041170348 1.08 4285822317
0.10686252 -0.00041170348 1.08 4285822317
0.10891619 -0.00041170348 1.08 4285822317
0.11096988 -0.00041170348 1.08 4285888110
0.11312822 -0.00041208472 1.0810001 4285888110
0.11529036 -0.00041246592 1.082 4285756524
0.11734784 -0.00041246592 1.082 4285690731
0.11940533 -0.00041246592 1.082 4285690731
0.12090153 -0.00041055988 1.077 4285756524
0.12294951 -0.00041055988 1.077 4285822317
0.12499748 -0.00041055988 1.077 4285888110
0.12692751 -0.00041017868 1.0760001 4285888110
0.12885372 -0.00040979745 1.075 4285888110
0.13077612 -0.00040941624 1.074 4285953905
0.1328184 -0.00040941624 1.074 4285888112
0.13498625 -0.00040979745 1.075 4285756784
0.13728535 -0.00041055988 1.077 4285954163
0.14023894 -0.00041322832 1.0840001 4285823349
0.14348169 -0.0004166592 1.0930001 4285099626
0.14662549 -0.00041970884 1.1010001 4284507748
0.14898926 -0.00042047125 1.103 4284573541
0.15108669 -0.00042047125 1.103 4284836713
0.1531841 -0.00042047125 1.103 4284836713
0.15528151 -0.00042047125 1.103 4284902506
0.15752164 -0.00042085245 1.1040001 4285034092
0.15962096 -0.00042085245 1.1040001 4285165676
0.16172028 -0.00042085245 1.1040001 4285231469
0.1636712 -0.00042047125 1.103 4285297262
0.16561833 -0.00042009004 1.102 4285231469
0.16756165 -0.00041970884 1.1010001 4285363057
0.16980937 -0.00042009004 1.102 4285363057
0.17190489 -0.00042009004 1.102 4285363055
0.17400041 -0.00042009004 1.102 4285363055
0.17625572 -0.00042047125 1.103 4285363055
0.17819145 -0.00042009004 1.102 4285363055
0.18028696 -0.00042009004 1.102 4285297262
0.18221697 -0.00041970884 1.1010001 4285297262
0.18431059 -0.00041970884 1.1010001 4285428848
0.18623491 -0.00041932764 1.1 4285428848
0.18815543 -0.00041894644 1.0990001 4285429102
0.19024524 -0.00041894644 1.0990001 4285429102
0.19233505 -0.00041894644 1.0990001 4285429102
0.19442487 -0.00041894644 1.0990001 4285429102
0.19669348 -0.00041932764 1.1 4285429102
0.1987852 -0.00041932764 1.1 4285429102
-0.37917417 0.0016845581 1.108 4285692274
-0.37706727 0.0016845581 1.108 4285692274
-0.37496033 0.0016845581 1.108 4285758067
-0.3728534 0.0016845581 1.108 4285823860
-0.37108108 0.0016860786 1.1090001 4285823349
-0.36897227 0.0016860786 1.1090001 4285823349
-0.36719424 0.0016875989 1.11 4285823349
-0.36508352 0.0016875989 1.11 4285757556
-0.36264578 0.0016860786 1.1090001 4285691761
-0.36053693 0.0016860786 1.1090001 4285691761
-0.35810491 0.0016845581 1.108 4285625968
-0.35567668 0.0016830377 1.107 4285625968
-0.35325226 0.0016815175 1.1060001 4285625968
-0.35146663 0.0016830377 1.107 4285625968
-0.34967721 0.0016845581 1.108 4285560175
-0.34757027 0.0016845581 1.108 4285560175
-0.34546334 0.0016845581 1.108 4285494381
-0.3433564 0.0016845581 1.108 4285494381
-0.34094149 0.0016830377 1.107 4285494381
-0.33883646 0.0016830377 1.107 4285494381
-0.33673143 0.0016830377 1.107 4285429102
-0.33432415 0.0016815175 1.1060001 4285232493
-0.33192065 0.0016799972 1.105 4285363309
-0.33011791 0.0016815175 1.1060001 4285363309
-0.32801479 0.0016815175 1.1060001 4285363309
-0.32591164 0.0016815175 1.1060001 4285231723
-0.32380852 0.0016815175 1.1060001 4285165416
-0.32112366 0.0016784767 1.1040001 4285099623
-0.31786844 0.0016723953 1.1 4285362279
-0.31462845 0.0016663139 1.0960001 4285691244
-0.31026298 0.001654151 1.0880001 4286019437
-0.30507818 0.0016374271 1.077 4285887849
-0.30303019 0.0016374271 1.077 4285887335
-0.30098221 0.0016374271 1.077 4286018407
-0.29893422 0.0016374271 1.077 4286215270
-0.29716194 0.0016389474 1.0780001 4286346856
-0.29511204 0.0016389474 1.0780001 4286149994
-0.29333401 0.0016404677 1.079 4286215787
-0.29155219 0.0016419881 1.08 4286149994
-0.28949848 0.0016419881 1.08 4286149994
-0.2874448 0.0016419881 1.08 4286084201
-0.28512686 0.0016404677 1.079 4286084201
-0.28307509 0.0016404677 1.079 4286149993
-0.28102329 0.0016404677 1.079 4286215786
-0.27923006 0.0016419881 1.08 4286084200
-0.27717638 0.0016419881 1.08 4286149993
-0.27486795 0.0016404677 1.079 4286149993
-0.27281618 0.0016404677 1.079 4286084200
-0.27101535 0.0016419881 1.08 4286018407
-0.26896164 0.0016419881 1.08 4286018407
-0.26715511 0.0016435086 1.0810001 4286084454
-0.26509953 0.0016435086 1.0810001 4286084454
-0.26304394 0.0016435086 1.0810001 4286215786
-0.26122978 0.0016450288 1.082 4286149993
-0.25941184 0.0016465491 1.0830001 4286149993
-0.25735244 0.0016465491 1.0830001 4286149993
-0.25529307 0.0016465491 1.0830001 4286149993
-0.25323367 0.0016465491 1.0830001 4286149993
-0.2511743 0.0016465491 1.0830001 4286084200
-0.24888487 0.0016450288 1.082 4286018407
-0.24682738 0.0016450288 1.082 4285952615
-0.2449961 0.0016465491 1.0830001 4286018408
-0.24293672 0.0016465491 1.0830001 4286018408
-0.24109975 0.0016480696 1.0840001 4286018408
-0.23903847 0.0016480696 1.0840001 4286018408
-0.23741439 0.0016511102 1.0860001 4286018408
-0.23491588 0.0016480696 1.0840001 4285952615
-0.23306939 0.00164959 1.085 4285952615
-0.23100621 0.00164959 1.085 4285887081
-0.22894301 0.00164959 1.085 4286216046
-0.22687982 0.00164959 1.085 4285887081
-0.22481662 0.00164959 1.085 4285821288
-0.22295874 0.0016511102 1.0860001 4285755495
-0.22089365 0.0016511102 1.0860001 4286084460
-0.21782106 0.0016435086 1.0810001 4285755495
-0.21556586 0.0016419881 1.08 4283123775
-0.21311679 0.0016389474 1.0780001 4281676329
-0.21106692 0.0016389474 1.0780001 4281281571
-0.20940481 0.0016419881 1.08 4281018399
-0.20792711 0.0016465491 1.0830001 4282202673
-0.20586772 0.0016465491 1.0830001 4284834393
-0.20418471 0.00164959 1.085 4286413425
-0.20249408 0.0016526305 1.087 4286150253
-0.20061149 0.001654151 1.0880001 4285426784
-0.19854259 0.001654151 1.0880001 4285953128
-0.19647369 0.001654151 1.0880001 4285953127
-0.1944048 0.001654151 1.0880001 4285953127
-0.1923359 0.001654151 1.0880001 4285887334
-0.19044189 0.0016556714 1.0890001 4285821542
-0.18837109 0.0016556714 1.0890001 4285821542
-0.18612921 0.001654151 1.0880001 4285821542
-0.18406032 0.001654151 1.0880001 4285821542
-0.18215869 0.0016556714 1.0890001 4285887081
-0.18008789 0.0016556714 1.0890001 4286216046
-0.17818056 0.0016571917 1.09 4286018669
-0.1759463 0.0016556714 1.0890001 4286018669
-0.1738755 0.0016556714 1.0890001 4285952876
-0.17148916 0.0016526305 1.087 4286084462
-0.16911045 0.00164959 1.085 4285952876
-0.16673933 0.0016465491 1.0830001 4284571223
-0.16422376 0.0016419881 1.08 4282071087
-0.16232024 0.0016435086 1.0810001 4282136880
-0.16026466 0.0016435086 1.0810001 4282071087
-0.15820907 0.0016435086 1.0810001 4282268466
-0.15644239 0.0016465491 1.0830001 4282465845
-0.15481067 0.0016511102 1.0860001 4285558116
-0.15288621 0.0016526305 1.087 4286216046
-0.15123546 0.0016571917 1.09 4285558116
-0.14916277 0.0016571917 1.09 4285821288
-0.14709006 0.0016571917 1.09 4285755495
-0.14488433 0.0016556714 1.0890001 4285755495
-0.14281353 0.0016556714 1.0890001 4285755495
-0.14074273 0.0016556714 1.0890001 4285821288
-0.13867193 0.0016556714 1.0890001 4285821288
-0.13672657 0.0016571917 1.09 4285821288
-0.13465387 0.0016571917 1.09 4285755495
-0.13258117 0.0016571917 1.09 4285492577
-0.13050847 0.0016571917 1.09 4285755749
-0.12843576 0.0016571917 1.09 4285887335
-0.12636307 0.0016571917 1.09 4285624163
-0.12429037 0.0016571917 1.09 4285360991
-0.12221767 0.0016571917 1.09 4285755749
-0.12003475 0.0016556714 1.0890001 4286018921
-0.11785562 0.001654151 1.0880001 4285624163
-0.11557389 0.0016511102 1.0860001 4282729785
-0.11329975 0.0016480696 1.0840001 4281282339
-0.11113584 0.0016465491 1.0830001 4281808683
-0.10917717 0.0016480696 1.0840001 4281808683
-0.10731351 0.0016511102 1.0860001 4282071855
-0.10524842 0.0016511102 1.0860001 4283387715
-0.10327834 0.0016526305 1.087 4286019435
-0.10121135 0.0016526305 1.087 4285558884
-0.099144347 0.0016526305 1.087 4285756263
-0.097166665 0.001654151 1.0880001 4285690470
-0.095185168 0.0016556714 1.0890001 4285624677
-0.093114369 0.0016556714 1.0890001 4285624677
-0.091043577 0.0016556714 1.0890001 4285624677
-0.088972777 0.0016556714 1.0890001 4285624677
-0.086901978 0.0016556714 1.0890001 4285558886
-0.084831178 0.0016556714 1.0890001 4285493093
-0.082684383 0.001654151 1.0880001 4285558886
-0.080541395 0.0016526305 1.087 4285624679
-0.078474402 0.0016526305 1.087 4285690472
-0.076126233 0.0016465491 1.0830001 4285558886
-0.074135236 0.0016480696 1.0840001 4285493093
-0.072073944 0.0016480696 1.0840001 4285493093
-0.070012659 0.0016480696 1.0840001 4285690474
-0.067951366 0.0016480696 1.0840001 4285887851
-0.065890074 0.0016480696 1.0840001 4284242510
-0.063828781 0.0016480696 1.0840001 4282202927
-0.061710514 0.0016465491 1.0830001 4282005548
-0.059540968 0.0016435086 1.0810001 4281873962
-0.057485383 0.0016435086 1.0810001 4281742376
-0.055481073 0.0016450288 1.082 4282597685
-0.053472959 0.0016465491 1.0830001 4285031772
-0.051461048 0.0016480696 1.0840001 4285755495
-0.049445327 0.00164959 1.085 4285689702
-0.047382135 0.00164959 1.085 4285755495
-0.04536071 0.0016511102 1.0860001 4285887083
-0.043295618 0.0016511102 1.0860001 4285952876
-0.041230526 0.0016511102 1.0860001 4285952876
-0.03916543 0.0016511102 1.0860001 4285887083
-0.037100337 0.0016511102 1.0860001 4285821290
-0.035002984 0.00164959 1.085 4285755497
-0.032939792 0.00164959 1.085 4285756267
-0.030876601 0.00164959 1.085 4285690474
-0.028839966 0.0016511102 1.0860001 4285624681
-0.026774874 0.0016511102 1.0860001 4285558888
-0.02470978 0.0016511102 1.0860001 4285558888
-0.022644687 0.0016511102 1.0860001 4285558888
-0.020579593 0.0016511102 1.0860001 4285624681
-0.01849745 0.00164959 1.085 4285624681
-0.016419113 0.0016480696 1.0840001 4285361509
-0.014331331 0.0016450288 1.082 4282861375
-0.012251157 0.0016419881 1.08 4281940273
-0.010197474 0.0016419881 1.08 4281808687
-0.0081513301 0.0016435086 1.0810001 4281677101
-0.006107023 0.0016465491 1.0830001 4281742894
-0.0040513715 0.0016480696 1.0840001 4282598203
-0.0019937528 0.0016511102 1.0860001 4285164130
7.1340502e-05 0.0016511102 1.0860001 4285756265
0.0021364337 0.0016511102 1.0860001 4285690472
0.0042015272 0.0016511102 1.0860001 4285690472
0.0062666205 0.0016511102 1.0860001 4285756265
0.0083317133 0.0016511102 1.0860001 4285756265
0.010396807 0.0016511102 1.0860001 4285690472
0.012450426 0.00164959 1.085 4285624679
0.014513617 0.00164959 1.085 4285624679
0.01657681 0.00164959 1.085 4285690472
0.01865718 0.0016511102 1.0860001 4285690472
0.020722274 0.0016511102 1.0860001 4285690472
0.022787366 0.0016511102 1.0860001 4285690472
0.024829576 0.00164959 1.085 4285756265
0.02686798 0.0016480696 1.0840001 4285756265
0.028929271 0.0016480696 1.0840001 4285822058
0.031019151 0.00164959 1.085 4285822058
0.033112835 0.0016511102 1.0860001 4285690472
0.035145536 0.00164959 1.085 4284966749
0.037140142 0.0016465491 1.0830001 4282137650
0.039054748 0.0016404677 1.079 4281084962
0.041030332 0.0016374271 1.077 4281808683
0.043078315 0.0016374271 1.077 4281677097
0.045210093 0.0016404677 1.079 4281348132
0.047393281 0.0016450288 1.082 4283256129
0.049542174 0.0016480696 1.0840001 4285690472
0.051651068 0.00164959 1.085 4285756265
0.05371426 0.00164959 1.085 4285756267
0.055726044 0.0016480696 1.0840001 4285756267
0.057787333 0.0016480696 1.0840001 4285756013
0.059848625 0.0016480696 1.0840001 4285756013
0.06196703 0.00164959 1.085 4285821807
0.064030215 0.00164959 1.085 4285821807
0.066093408 0.00164959 1.085 4285887600
0.0681566 0.00164959 1.085 4285821807
0.070219792 0.00164959 1.085 4285821807
0.072216369 0.0016480696 1.0840001 4285821807
0.074277662 0.0016480696 1.0840001 4285821807
0.07640937 0.00164959 1.085 4285756014
0.078255586 0.0016450288 1.082 4285690220
0.080313072 0.0016450288 1.082 4285624427
0.082370564 0.0016450288 1.082 4285756013
0.08442805 0.0016450288 1.082 4285756013
0.086485535 0.0016450288 1.082 4285756013
0.08846119 0.0016435086 1.0810001 4285756013
0.090516776 0.0016435086 1.0810001 4285821806
0.092572361 0.0016435086 1.0810001 4285821806
0.09454041 0.0016419881 1.08 4285822060
0.096683532 0.0016435086 1.0810001 4285822060
0.098647773 0.0016419881 1.08 4285822317
0.1007947 0.0016435086 1.0810001 4285822317
0.10285029 0.0016435086 1.0810001 4285822317
0.10480883 0.0016419881 1.08 4285822317
0.10686252 0.0016419881 1.08 4285822317
0.10891619 0.0016419881 1.08 4285822317
0.11096988 0.0016419881 1.08 4285888110
0.11312822 0.0016435086 1.0810001 4285953903
0.11529036 0.0016450288 1.082 4285822317
0.11734784 0.0016450288 1.082 4285822317
0.11940533 0.0016450288 1.082 4285822317
0.12135056 0.0016435086 1.0810001 4285822317
0.12374862 0.0016480696 1.0840001 4285888110
0.12557778 0.0016450288 1.082 4285888110
0.12739936 0.0016419881 1.08 4285822317
0.12933317 0.0016404677 1.079 4285756524
0.1312632 0.0016389474 1.0780001 4285822319
0.13331307 0.0016389474 1.0780001 4285888112
0.13573965 0.0016435086 1.0810001 4285690991
0.1375403 0.0016404677 1.079 4285954163
0.14075643 0.001654151 1.0880001 4285757556
0.14400679 0.0016678342 1.097 4284968040
0.14715819 0.0016799972 1.105 4284573541
0.14979972 0.0016860786 1.1090001 4284770920
0.15190856 0.0016860786 1.1090001 4284902506
0.15401739 0.0016860786 1.1090001 4284836713
0.15612622 0.0016860786 1.1090001 4284836713
0.15780699 0.0016815175 1.1060001 4284968299
0.15991013 0.0016815175 1.1060001 4285165676
0.16186675 0.0016799972 1.105 4285231469
0.16396798 0.0016799972 1.105 4285231469
0.16591892 0.0016784767 1.1040001 4285165676
0.16801824 0.0016784767 1.1040001 4285363057
0.17011756 0.0016784767 1.1040001 4285363057
0.17221688 0.0016784767 1.1040001 4285363055
0.17447409 0.0016799972 1.105 4285363055
0.17657532 0.0016799972 1.105 4285363055
0.17867653 0.0016799972 1.105 4285363055
0.18077776 0.0016799972 1.105 4285363055
0.18271349 0.0016784767 1.1040001 4285363055
0.18481281 0.0016784767 1.1040001 4285428848
0.18674281 0.0016769563 1.103 4285428848
0.18866904 0.001675436 1.102 4285429102
0.19076456 0.001675436 1.102 4285429102
0.19286008 0.001675436 1.102 4285429102
0.19495559 0.001675436 1.102 4285429102
0.19705111 0.001675436 1.102 4285429102
0.19896591 0.0016739157 1.1010001 4285429102
-0.37774789 0.0037983374 1.11 4285692274
-0.37563717 0.0037983374 1.11 4285758067
-0.37386295 0.0038017593 1.1110001 4285823860
-0.37175032 0.0038017593 1.1110001 4285757554
-0.3696377 0.0038017593 1.1110001 4285757554
-0.36752504 0.0038017593 1.1110001 4285691761
-0.36574131 0.0038051812 1.1120001 4285691761
-0.36329979 0.0038017593 1.1110001 4285691761
-0.36118716 0.0038017593 1.1110001 4285691761
-0.35875133 0.0037983374 1.11 4285691761
-0.35631928 0.0037949155 1.1090001 4285691761
-0.35389104 0.0037914936 1.108 4285560175
-0.35210162 0.0037949155 1.1090001 4285560175
-0.35030839 0.0037983374 1.11 4285560174
-0.34819767 0.0037983374 1.11 4285560174
-0.34608692 0.0037983374 1.11 4285560174
-0.3439762 0.0037983374 1.11 4285560174
-0.34186548 0.0037983374 1.11 4285494381
-0.33944866 0.0037949155 1.1090001 4285494381
-0.33733982 0.0037949155 1.1090001 4285429102
-0.33523098 0.0037949155 1.1090001 4285363309
-0.33312216 0.0037949155 1.1090001 4285363309
-0.33101332 0.0037949155 1.1090001 4285363309
-0.32890451 0.0037949155 1.1090001 4285363309
-0.32679567 0.0037949155 1.1090001 4285231723
-0.32468686 0.0037949155 1.1090001 4285231209
-0.32228714 0.0037914936 1.108 4285099623
-0.31902432 0.0037778059 1.1040001 4285230693
-0.31462845 0.0037504304 1.0960001 4285625451
-0.31026298 0.0037230551 1.0880001 4286019437
-0.30621123 0.0036991017 1.0810001 4285953642
-0.30387428 0.0036956796 1.08 4285953128
-0.30182061 0.0036956796 1.08 4285953127
-0.2997669 0.0036956796 1.08 4286150247
-0.29798889 0.0036991017 1.0810001 4286216040
-0.29593331 0.0036991017 1.0810001 4286149994
-0.29414958 0.0037025237 1.082 4286149994
-0.29209208 0.0037025237 1.082 4286084201
-0.29003462 0.0037025237 1.082 4286084201
-0.28797713 0.0037025237 1.082 4286018408
-0.28591964 0.0037025237 1.082 4286084201
-0.28359979 0.0036991017 1.0810001 4286149993
-0.28180465 0.0037025237 1.082 4286215786
-0.27974719 0.0037025237 1.082 4286149993
-0.2776897 0.0037025237 1.082 4286149993
-0.27588695 0.0037059453 1.0830001 4286149993
-0.27382755 0.0037059453 1.0830001 4286149993
-0.27176818 0.0037059453 1.0830001 4286084200
-0.26995781 0.0037093675 1.0840001 4286084200
-0.2678965 0.0037093675 1.0840001 4286149993
-0.26583523 0.0037093675 1.0840001 4286149993
-0.26377392 0.0037093675 1.0840001 4286215786
-0.26171264 0.0037093675 1.0840001 4286149993
-0.25965136 0.0037093675 1.0840001 4286084200
-0.2578277 0.0037127894 1.085 4286018407
-0.25600025 0.0037162111 1.0860001 4286018407
-0.25393513 0.0037162111 1.0860001 4286084200
-0.25187004 0.0037162111 1.0860001 4286084200
-0.25003499 0.0037196332 1.087 4286018407
-0.24773987 0.0037162111 1.0860001 4286018408
-0.24567477 0.0037162111 1.0860001 4286018408
-0.24383399 0.0037196332 1.087 4286018408
-0.24176699 0.0037196332 1.087 4285952615
-0.24014103 0.003726477 1.0890001 4285952615
-0.23828885 0.0037298992 1.09 4285952615
-0.23621614 0.0037298992 1.09 4285952615
-0.23328421 0.0037162111 1.0860001 4286018408
-0.23121911 0.0037162111 1.0860001 4285492323
-0.22915402 0.0037162111 1.0860001 4286479218
-0.22708893 0.0037162111 1.0860001 4285821288
-0.22502384 0.0037162111 1.0860001 4285821288
-0.22295874 0.0037162111 1.0860001 4286281839
-0.22089365 0.0037162111 1.0860001 4285821288
-0.21802256 0.0037025237 1.082 4285952874
-0.21576548 0.0036991017 1.0810001 4285952874
-0.21331449 0.0036922577 1.079 4286150253
-0.21126272 0.0036922577 1.079 4285755495
-0.20959872 0.0036991017 1.0810001 4285623909
-0.20811911 0.0037093675 1.0840001 4286084460
-0.20605782 0.0037093675 1.0840001 4286479218
-0.2043729 0.0037162111 1.0860001 4286216046
-0.20268038 0.0037230551 1.0880001 4285887081
-0.20079587 0.003726477 1.0890001 4286018921
-0.19872507 0.003726477 1.0890001 4285953128
-0.19665428 0.003726477 1.0890001 4285953127
-0.19458348 0.003726477 1.0890001 4285887335
-0.19251269 0.003726477 1.0890001 4285821542
-0.19044189 0.003726477 1.0890001 4285755749
-0.18854405 0.0037298992 1.09 4285755749
-0.18647136 0.0037298992 1.09 4285755749
-0.18439865 0.0037298992 1.09 4285755749
-0.18232596 0.0037298992 1.09 4285821288
-0.18025325 0.0037298992 1.09 4285887081
-0.17818056 0.0037298992 1.09 4285887081
-0.17610785 0.0037298992 1.09 4285952874
-0.17403516 0.0037298992 1.09 4285887083
-0.17164694 0.0037230551 1.0880001 4285887083
-0.16926631 0.0037162111 1.0860001 4286216048
-0.16704726 0.0037127894 1.085 4286150255
-0.16452789 0.0037025237 1.082 4286742390
-0.16247042 0.0037025237 1.082 4285031772
-0.16041292 0.0037025237 1.082 4285031772
-0.15835543 0.0037025237 1.082 4285887081
-0.15658686 0.0037093675 1.0840001 4286150253
-0.15495321 0.0037196332 1.087 4286018667
-0.15302686 0.0037230551 1.0880001 4285887081
-0.15123546 0.0037298992 1.09 4285952874
-0.14929962 0.0037333209 1.0910001 4285952874
-0.14722502 0.0037333209 1.0910001 4285821288
-0.14501737 0.0037298992 1.09 4285755495
-0.14294466 0.0037298992 1.09 4285689702
-0.14087197 0.0037298992 1.09 4285689702
-0.13879927 0.0037298992 1.09 4285755495
-0.13685201 0.0037333209 1.0910001 4285755495
-0.13477741 0.0037333209 1.0910001 4285755495
-0.13270281 0.0037333209 1.0910001 4285755749
-0.13074793 0.0037367428 1.092 4285558370
-0.1285536 0.0037333209 1.0910001 4285624163
-0.126479 0.0037333209 1.0910001 4285821542
-0.12440439 0.0037333209 1.0910001 4285821542
-0.12221767 0.0037298992 1.09 4285953128
-0.12014497 0.0037298992 1.09 4286018921
-0.11796395 0.003726477 1.0890001 4285755749
-0.11568031 0.0037196332 1.087 4286348400
-0.11340427 0.0037127894 1.085 4284966747
-0.11134108 0.0037127894 1.085 4285164126
-0.10937861 0.0037162111 1.0860001 4284637782
-0.10741233 0.0037196332 1.087 4284835161
-0.10544225 0.0037230551 1.0880001 4286019435
-0.10337335 0.0037230551 1.0880001 4285953642
-0.10130446 0.0037230551 1.0880001 4285887849
-0.099235557 0.0037230551 1.0880001 4285756263
-0.097255968 0.003726477 1.0890001 4285690470
-0.095185168 0.003726477 1.0890001 4285624677
-0.093199879 0.0037298992 1.09 4285624677
-0.091127172 0.0037298992 1.09 4285624677
-0.089054473 0.0037298992 1.09 4285624677
-0.086981773 0.0037298992 1.09 4285558886
-0.084909074 0.0037298992 1.09 4285493093
-0.082836375 0.0037298992 1.09 4285624679
-0.080689587 0.003726477 1.0890001 4285690472
-0.078474402 0.0037196332 1.087 4285690472
-0.076407403 0.0037196332 1.087 4285558886
-0.074408799 0.0037230551 1.0880001 4285427300
-0.072406389 0.003726477 1.0890001 4285427300
-0.070335597 0.003726477 1.0890001 4285624679
-0.068202108 0.0037230551 1.0880001 4285756265
-0.066072434 0.0037196332 1.087 4286413679
-0.063946553 0.0037162111 1.0860001 4285032025
-0.061710514 0.0037059453 1.0830001 4284637267
-0.059540968 0.0036991017 1.0810001 4284308302
-0.057538562 0.0037025237 1.082 4284571475
-0.055532347 0.0037059453 1.0830001 4285689956
-0.053571712 0.0037127894 1.085 4286742644
-0.051555991 0.0037162111 1.0860001 4285821542
-0.049582042 0.0037230551 1.0880001 4285623909
-0.047513146 0.0037230551 1.0880001 4285689702
-0.045486018 0.003726477 1.0890001 4285755495
-0.043415219 0.003726477 1.0890001 4285821288
-0.041344423 0.003726477 1.0890001 4285887083
-0.039273623 0.003726477 1.0890001 4285821290
-0.037202824 0.003726477 1.0890001 4285689704
